0.78000     0.78000     0.78000     0.78000     0.78000     0.78000     0.78000     0.78000     0.78000     0.75910     0.73819     0.71729     0.69639     0.67549     0.65458     0.63368     0.61278     0.59187     0.57097     0.55007     0.52917     0.50826     0.48736     0.46646     0.44555     0.42465     0.40375     0.38284     0.36194     0.34104     0.32014     0.29923     0.27833     0.25743     0.23652     0.21562     0.19472     0.17382     0.15291     0.13201     0.11111     0.09020     0.07640     0.07600     0.07560     0.07520     0.07480     0.07440     0.07400     0.07360     0.06436     0.04971     0.03510     0.02056     0.00608    -0.00833    -0.02265    -0.03689    -0.05102    -0.06504    -0.07893    -0.09267    -0.10624    -0.11961    -0.13275    -0.14563    -0.15820    -0.17041    -0.18220    -0.19348    -0.20418    -0.21417    -0.22335    -0.23157    -0.23867    -0.24450    -0.24891    -0.25177    -0.25300    -0.25257    -0.25051    -0.24690    -0.24187    -0.23557    -0.22815    -0.21977    -0.21058    -0.20068    -0.19020    -0.17921    -0.16780    -0.15603    -0.14395    -0.13161    -0.11904    -0.10627    -0.09333    -0.08024    -0.06702    -0.05369    -0.04025    -0.02673    -0.01312     0.00056     0.01430     0.02811     0.04196     0.05040     0.05000     0.04960     0.04920     0.04880     0.04840     0.04800     0.04760     0.04720     0.04680     0.04640     0.04600     0.04560     0.04520     0.04480     0.04440     0.04400     0.04360     0.04320     0.04280     0.04240     0.04200     0.04160     0.04120     0.04080     0.04040     0.04000     0.03960     0.03920     0.03880     0.03840     0.03800     0.03760     0.03720     0.03680     0.03640     0.03600     0.03560     0.03520     0.03480     0.03440     0.03400     0.03360     0.03320     0.03280     0.03240     0.03200     0.03160     0.03120     0.03080     0.03040     0.03000     0.02667     0.02333     0.02000     0.01667     0.01333     0.01000     0.00667     0.00333     0.00000
0.78000     0.78000     0.78000     0.78000     0.78000     0.78000     0.78000     0.78000     0.78000     0.75849     0.73699     0.71548     0.69398     0.67247     0.65096     0.62946     0.60795     0.58645     0.56494     0.54343     0.52193     0.50042     0.47892     0.45741     0.43591     0.41440     0.39289     0.37139     0.34988     0.32838     0.30687     0.28536     0.26386     0.24235     0.22085     0.19934     0.17783     0.15633     0.13482     0.11332     0.09181     0.07680     0.07640     0.07600     0.07560     0.07520     0.07480     0.07440     0.07400     0.07360     0.06001     0.04520     0.03044     0.01573     0.00107    -0.01353    -0.02806    -0.04252    -0.05689    -0.07117    -0.08533    -0.09938    -0.11327    -0.12700    -0.14053    -0.15383    -0.16687    -0.17958    -0.19191    -0.20378    -0.21509    -0.22575    -0.23560    -0.24449    -0.25224    -0.25864    -0.26351    -0.26667    -0.26800    -0.26747    -0.26511    -0.26104    -0.25544    -0.24849    -0.24040    -0.23135    -0.22149    -0.21098    -0.19991    -0.18838    -0.17647    -0.16423    -0.15173    -0.13900    -0.12607    -0.11298    -0.09973    -0.08637    -0.07289    -0.05932    -0.04566    -0.03193    -0.01813    -0.00427     0.00964     0.02360     0.03761     0.05040     0.05000     0.04960     0.04920     0.04880     0.04840     0.04800     0.04760     0.04720     0.04680     0.04640     0.04600     0.04560     0.04520     0.04480     0.04440     0.04400     0.04360     0.04320     0.04280     0.04240     0.04200     0.04160     0.04120     0.04080     0.04040     0.04000     0.03960     0.03920     0.03880     0.03840     0.03800     0.03760     0.03720     0.03680     0.03640     0.03600     0.03560     0.03520     0.03480     0.03440     0.03400     0.03360     0.03320     0.03280     0.03240     0.03200     0.03160     0.03120     0.03080     0.03040     0.03000     0.02667     0.02333     0.02000     0.01667     0.01333     0.01000     0.00667     0.00333     0.00000
0.78000     0.78000     0.78000     0.78000     0.78000     0.78000     0.78000     0.78000     0.78000     0.75785     0.73571     0.71356     0.69142     0.66927     0.64713     0.62498     0.60284     0.58069     0.55855     0.53640     0.51425     0.49211     0.46996     0.44782     0.42567     0.40353     0.38138     0.35924     0.33709     0.31494     0.29280     0.27065     0.24851     0.22636     0.20422     0.18207     0.15993     0.13778     0.11564     0.09349     0.07720     0.07680     0.07640     0.07600     0.07560     0.07520     0.07480     0.07440     0.07400     0.07109     0.05613     0.04119     0.02629     0.01142    -0.00340    -0.01818    -0.03290    -0.04756    -0.06216    -0.07667    -0.09110    -0.10543    -0.11964    -0.13371    -0.14761    -0.16133    -0.17481    -0.18802    -0.20090    -0.21337    -0.22535    -0.23671    -0.24731    -0.25697    -0.26547    -0.27256    -0.27800    -0.28153    -0.28300    -0.28233    -0.27960    -0.27496    -0.26867    -0.26097    -0.25211    -0.24231    -0.23175    -0.22057    -0.20890    -0.19682    -0.18441    -0.17173    -0.15881    -0.14571    -0.13244    -0.11903    -0.10550    -0.09187    -0.07816    -0.06436    -0.05050    -0.03658    -0.02260    -0.00858     0.00549     0.01959     0.03373     0.04789     0.05000     0.04960     0.04920     0.04880     0.04840     0.04800     0.04760     0.04720     0.04680     0.04640     0.04600     0.04560     0.04520     0.04480     0.04440     0.04400     0.04360     0.04320     0.04280     0.04240     0.04200     0.04160     0.04120     0.04080     0.04040     0.04000     0.03960     0.03920     0.03880     0.03840     0.03800     0.03760     0.03720     0.03680     0.03640     0.03600     0.03560     0.03520     0.03480     0.03440     0.03400     0.03360     0.03320     0.03280     0.03240     0.03200     0.03160     0.03120     0.03080     0.03040     0.03000     0.02667     0.02333     0.02000     0.01667     0.01333     0.01000     0.00667     0.00333     0.00000
0.78000     0.78000     0.78000     0.78000     0.78000     0.78000     0.78000     0.78000     0.78000     0.75717     0.73435     0.71152     0.68870     0.66587     0.64305     0.62022     0.59740     0.57457     0.55175     0.52892     0.50610     0.48327     0.46045     0.43762     0.41480     0.39197     0.36915     0.34632     0.32350     0.30067     0.27785     0.25502     0.23220     0.20937     0.18655     0.16372     0.14090     0.11807     0.09525     0.07760     0.07720     0.07680     0.07640     0.07600     0.07560     0.07520     0.07480     0.07440     0.07400     0.06781     0.05273     0.03768     0.02265     0.00765    -0.00732    -0.02225    -0.03715    -0.05200    -0.06679    -0.08153    -0.09620    -0.11078    -0.12528    -0.13967    -0.15393    -0.16803    -0.18195    -0.19565    -0.20907    -0.22215    -0.23480    -0.24691    -0.25832    -0.26885    -0.27823    -0.28618    -0.29233    -0.29636    -0.29800    -0.29716    -0.29393    -0.28858    -0.28143    -0.27285    -0.26312    -0.25251    -0.24120    -0.22935    -0.21707    -0.20445    -0.19155    -0.17843    -0.16513    -0.15167    -0.13808    -0.12438    -0.11060    -0.09673    -0.08279    -0.06880    -0.05475    -0.04065    -0.02652    -0.01235     0.00185     0.01608     0.03033     0.04461     0.05000     0.04960     0.04920     0.04880     0.04840     0.04800     0.04760     0.04720     0.04680     0.04640     0.04600     0.04560     0.04520     0.04480     0.04440     0.04400     0.04360     0.04320     0.04280     0.04240     0.04200     0.04160     0.04120     0.04080     0.04040     0.04000     0.03960     0.03920     0.03880     0.03840     0.03800     0.03760     0.03720     0.03680     0.03640     0.03600     0.03560     0.03520     0.03480     0.03440     0.03400     0.03360     0.03320     0.03280     0.03240     0.03200     0.03160     0.03120     0.03080     0.03040     0.03000     0.02667     0.02333     0.02000     0.01667     0.01333     0.01000     0.00667     0.00333     0.00000
0.78000     0.78000     0.78000     0.78000     0.78000     0.78000     0.78000     0.78000     0.78000     0.75645     0.73290     0.70935     0.68581     0.66226     0.63871     0.61516     0.59161     0.56806     0.54452     0.52097     0.49742     0.47387     0.45032     0.42677     0.40323     0.37968     0.35613     0.33258     0.30903     0.28548     0.26193     0.23839     0.21484     0.19129     0.16774     0.14419     0.12064     0.09710     0.07800     0.07760     0.07720     0.07680     0.07640     0.07600     0.07560     0.07520     0.07480     0.07440     0.07400     0.06502     0.04984     0.03469     0.01955     0.00443    -0.01067    -0.02574    -0.04078    -0.05579    -0.07077    -0.08570    -0.10058    -0.11540    -0.13015    -0.14483    -0.15941    -0.17387    -0.18820    -0.20235    -0.21629    -0.22997    -0.24329    -0.25617    -0.26845    -0.27993    -0.29035    -0.29934    -0.30642    -0.31111    -0.31300    -0.31191    -0.30802    -0.30174    -0.29355    -0.28393    -0.27325    -0.26177    -0.24969    -0.23717    -0.22429    -0.21115    -0.19780    -0.18427    -0.17061    -0.15683    -0.14295    -0.12900    -0.11498    -0.10090    -0.08677    -0.07259    -0.05838    -0.04414    -0.02987    -0.01557    -0.00125     0.01309     0.02744     0.04182     0.05000     0.04960     0.04920     0.04880     0.04840     0.04800     0.04760     0.04720     0.04680     0.04640     0.04600     0.04560     0.04520     0.04480     0.04440     0.04400     0.04360     0.04320     0.04280     0.04240     0.04200     0.04160     0.04120     0.04080     0.04040     0.04000     0.03960     0.03920     0.03880     0.03840     0.03800     0.03760     0.03720     0.03680     0.03640     0.03600     0.03560     0.03520     0.03480     0.03440     0.03400     0.03360     0.03320     0.03280     0.03240     0.03200     0.03160     0.03120     0.03080     0.03040     0.03000     0.02667     0.02333     0.02000     0.01667     0.01333     0.01000     0.00667     0.00333     0.00000
0.78000     0.78000     0.78000     0.78000     0.78000     0.78000     0.78000     0.78000     0.78000     0.75568     0.73136     0.70704     0.68272     0.65840     0.63408     0.60976     0.58544     0.56112     0.53680     0.51248     0.48816     0.46384     0.43952     0.41520     0.39088     0.36656     0.34224     0.31792     0.29360     0.26928     0.24496     0.22064     0.19632     0.17200     0.14768     0.12336     0.09904     0.07840     0.07800     0.07760     0.07720     0.07680     0.07640     0.07600     0.07560     0.07520     0.07480     0.07440     0.07400     0.06272     0.04746     0.03222     0.01699     0.00177    -0.01343    -0.02862    -0.04379    -0.05894    -0.07406    -0.08915    -0.10421    -0.11924    -0.13421    -0.14914    -0.16400    -0.17878    -0.19346    -0.20803    -0.22245    -0.23667    -0.25064    -0.26427    -0.27743    -0.28995    -0.30155    -0.31180    -0.32012    -0.32575    -0.32800    -0.32655    -0.32172    -0.31420    -0.30475    -0.29395    -0.28223    -0.26987    -0.25704    -0.24387    -0.23045    -0.21683    -0.20306    -0.18918    -0.17520    -0.16114    -0.14701    -0.13284    -0.11861    -0.10435    -0.09006    -0.07574    -0.06139    -0.04702    -0.03263    -0.01823    -0.00381     0.01062     0.02506     0.03952     0.05000     0.04960     0.04920     0.04880     0.04840     0.04800     0.04760     0.04720     0.04680     0.04640     0.04600     0.04560     0.04520     0.04480     0.04440     0.04400     0.04360     0.04320     0.04280     0.04240     0.04200     0.04160     0.04120     0.04080     0.04040     0.04000     0.03960     0.03920     0.03880     0.03840     0.03800     0.03760     0.03720     0.03680     0.03640     0.03600     0.03560     0.03520     0.03480     0.03440     0.03400     0.03360     0.03320     0.03280     0.03240     0.03200     0.03160     0.03120     0.03080     0.03040     0.03000     0.02667     0.02333     0.02000     0.01667     0.01333     0.01000     0.00667     0.00333     0.00000
0.78000     0.78000     0.78000     0.78000     0.78000     0.78000     0.78000     0.78000     0.78000     0.75486     0.72971     0.70457     0.67942     0.65428     0.62913     0.60399     0.57884     0.55370     0.52855     0.50341     0.47826     0.45312     0.42797     0.40283     0.37768     0.35254     0.32739     0.30225     0.27710     0.25196     0.22681     0.20167     0.17652     0.15138     0.12623     0.10109     0.07880     0.07840     0.07800     0.07760     0.07720     0.07680     0.07640     0.07600     0.07560     0.07520     0.07480     0.07440     0.07400     0.06092     0.04560     0.03029     0.01499    -0.00031    -0.01560    -0.03088    -0.04615    -0.06140    -0.07664    -0.09187    -0.10708    -0.12226    -0.13742    -0.15254    -0.16763    -0.18268    -0.19766    -0.21257    -0.22740    -0.24210    -0.25664    -0.27096    -0.28498    -0.29854    -0.31140    -0.32316    -0.33312    -0.34017    -0.34300    -0.34097    -0.33472    -0.32556    -0.31460    -0.30254    -0.28978    -0.27656    -0.26304    -0.24930    -0.23540    -0.22137    -0.20726    -0.19308    -0.17883    -0.16454    -0.15022    -0.13586    -0.12148    -0.10707    -0.09264    -0.07820    -0.06375    -0.04928    -0.03480    -0.02031    -0.00581     0.00869     0.02320     0.03772     0.05000     0.04960     0.04920     0.04880     0.04840     0.04800     0.04760     0.04720     0.04680     0.04640     0.04600     0.04560     0.04520     0.04480     0.04440     0.04400     0.04360     0.04320     0.04280     0.04240     0.04200     0.04160     0.04120     0.04080     0.04040     0.04000     0.03960     0.03920     0.03880     0.03840     0.03800     0.03760     0.03720     0.03680     0.03640     0.03600     0.03560     0.03520     0.03480     0.03440     0.03400     0.03360     0.03320     0.03280     0.03240     0.03200     0.03160     0.03120     0.03080     0.03040     0.03000     0.02667     0.02333     0.02000     0.01667     0.01333     0.01000     0.00667     0.00333     0.00000
0.78000     0.78000     0.78000     0.78000     0.78000     0.78000     0.78000     0.78000     0.78000     0.75397     0.72794     0.70191     0.67589     0.64986     0.62383     0.59780     0.57177     0.54574     0.51971     0.49369     0.46766     0.44163     0.41560     0.38957     0.36354     0.33751     0.31149     0.28546     0.25943     0.23340     0.20737     0.18134     0.15531     0.12929     0.10326     0.07920     0.07880     0.07840     0.07800     0.07760     0.07720     0.07680     0.07640     0.07600     0.07560     0.07520     0.07480     0.07440     0.07400     0.05963     0.04427     0.02891     0.01355    -0.00180    -0.01715    -0.03250    -0.04784    -0.06317    -0.07850    -0.09383    -0.10914    -0.12444    -0.13973    -0.15501    -0.17027    -0.18551    -0.20072    -0.21589    -0.23103    -0.24611    -0.26111    -0.27600    -0.29073    -0.30522    -0.31932    -0.33272    -0.34477    -0.35406    -0.35800    -0.35486    -0.34637    -0.33512    -0.32252    -0.30922    -0.29553    -0.28160    -0.26751    -0.25331    -0.23903    -0.22469    -0.21032    -0.19591    -0.18147    -0.16701    -0.15253    -0.13804    -0.12354    -0.10903    -0.09450    -0.07997    -0.06544    -0.05090    -0.03635    -0.02180    -0.00725     0.00731     0.02187     0.03643     0.05000     0.04960     0.04920     0.04880     0.04840     0.04800     0.04760     0.04720     0.04680     0.04640     0.04600     0.04560     0.04520     0.04480     0.04440     0.04400     0.04360     0.04320     0.04280     0.04240     0.04200     0.04160     0.04120     0.04080     0.04040     0.04000     0.03960     0.03920     0.03880     0.03840     0.03800     0.03760     0.03720     0.03680     0.03640     0.03600     0.03560     0.03520     0.03480     0.03440     0.03400     0.03360     0.03320     0.03280     0.03240     0.03200     0.03160     0.03120     0.03080     0.03040     0.03000     0.02667     0.02333     0.02000     0.01667     0.01333     0.01000     0.00667     0.00333     0.00000
0.78000     0.78000     0.78000     0.78000     0.78000     0.78000     0.78000     0.78000     0.78000     0.75302     0.72604     0.69907     0.67209     0.64511     0.61813     0.59116     0.56418     0.53720     0.51022     0.48324     0.45627     0.42929     0.40231     0.37533     0.34836     0.32138     0.29440     0.26742     0.24044     0.21347     0.18649     0.15951     0.13253     0.10556     0.07960     0.07920     0.07880     0.07840     0.07800     0.07760     0.07720     0.07680     0.07640     0.07600     0.07560     0.07520     0.07480     0.07440     0.07400     0.05886     0.04347     0.02808     0.01269    -0.00270    -0.01809    -0.03347    -0.04886    -0.06424    -0.07963    -0.09501    -0.11038    -0.12576    -0.14113    -0.15650    -0.17186    -0.18722    -0.20258    -0.21792    -0.23325    -0.24857    -0.26387    -0.27913    -0.29436    -0.30951    -0.32455    -0.33937    -0.35366    -0.36639    -0.37300    -0.36719    -0.35526    -0.34177    -0.32775    -0.31351    -0.29916    -0.28473    -0.27027    -0.25577    -0.24125    -0.22672    -0.21218    -0.19762    -0.18306    -0.16850    -0.15393    -0.13936    -0.12478    -0.11021    -0.09563    -0.08104    -0.06646    -0.05187    -0.03729    -0.02270    -0.00811     0.00648     0.02107     0.03566     0.05000     0.04960     0.04920     0.04880     0.04840     0.04800     0.04760     0.04720     0.04680     0.04640     0.04600     0.04560     0.04520     0.04480     0.04440     0.04400     0.04360     0.04320     0.04280     0.04240     0.04200     0.04160     0.04120     0.04080     0.04040     0.04000     0.03960     0.03920     0.03880     0.03840     0.03800     0.03760     0.03720     0.03680     0.03640     0.03600     0.03560     0.03520     0.03480     0.03440     0.03400     0.03360     0.03320     0.03280     0.03240     0.03200     0.03160     0.03120     0.03080     0.03040     0.03000     0.02667     0.02333     0.02000     0.01667     0.01333     0.01000     0.00667     0.00333     0.00000
0.78000     0.78000     0.78000     0.78000     0.78000     0.78000     0.78000     0.78000     0.78000     0.75200     0.72400     0.69600     0.66800     0.64000     0.61200     0.58400     0.55600     0.52800     0.50000     0.47200     0.44400     0.41600     0.38800     0.36000     0.33200     0.30400     0.27600     0.24800     0.22000     0.19200     0.16400     0.13600     0.10800     0.08000     0.07960     0.07920     0.07880     0.07840     0.07800     0.07760     0.07720     0.07680     0.07640     0.07600     0.07560     0.07520     0.07480     0.07440     0.07400     0.05860     0.04320     0.02780     0.01240    -0.00300    -0.01840    -0.03380    -0.04920    -0.06460    -0.08000    -0.09540    -0.11080    -0.12620    -0.14160    -0.15700    -0.17240    -0.18780    -0.20320    -0.21860    -0.23400    -0.24940    -0.26480    -0.28020    -0.29560    -0.31100    -0.32640    -0.34180    -0.35720    -0.37260    -0.38800    -0.37340    -0.35880    -0.34420    -0.32960    -0.31500    -0.30040    -0.28580    -0.27120    -0.25660    -0.24200    -0.22740    -0.21280    -0.19820    -0.18360    -0.16900    -0.15440    -0.13980    -0.12520    -0.11060    -0.09600    -0.08140    -0.06680    -0.05220    -0.03760    -0.02300    -0.00840     0.00620     0.02080     0.03540     0.05000     0.04960     0.04920     0.04880     0.04840     0.04800     0.04760     0.04720     0.04680     0.04640     0.04600     0.04560     0.04520     0.04480     0.04440     0.04400     0.04360     0.04320     0.04280     0.04240     0.04200     0.04160     0.04120     0.04080     0.04040     0.04000     0.03960     0.03920     0.03880     0.03840     0.03800     0.03760     0.03720     0.03680     0.03640     0.03600     0.03560     0.03520     0.03480     0.03440     0.03400     0.03360     0.03320     0.03280     0.03240     0.03200     0.03160     0.03120     0.03080     0.03040     0.03000     0.02667     0.02333     0.02000     0.01667     0.01333     0.01000     0.00667     0.00333     0.00000
0.78000     0.78000     0.78000     0.78000     0.78000     0.78000     0.78000     0.78000     0.78000     0.75302     0.72604     0.69907     0.67209     0.64511     0.61813     0.59116     0.56418     0.53720     0.51022     0.48324     0.45627     0.42929     0.40231     0.37533     0.34836     0.32138     0.29440     0.26742     0.24044     0.21347     0.18649     0.15951     0.13253     0.10556     0.07960     0.07920     0.07880     0.07840     0.07800     0.07760     0.07720     0.07680     0.07640     0.07600     0.07560     0.07520     0.07480     0.07440     0.07400     0.05886     0.04347     0.02808     0.01269    -0.00270    -0.01809    -0.03347    -0.04886    -0.06424    -0.07963    -0.09501    -0.11038    -0.12576    -0.14113    -0.15650    -0.17186    -0.18722    -0.20258    -0.21792    -0.23325    -0.24857    -0.26387    -0.27913    -0.29436    -0.30951    -0.32455    -0.33937    -0.35366    -0.36639    -0.37300    -0.36719    -0.35526    -0.34177    -0.32775    -0.31351    -0.29916    -0.28473    -0.27027    -0.25577    -0.24125    -0.22672    -0.21218    -0.19762    -0.18306    -0.16850    -0.15393    -0.13936    -0.12478    -0.11021    -0.09563    -0.08104    -0.06646    -0.05187    -0.03729    -0.02270    -0.00811     0.00648     0.02107     0.03566     0.05000     0.04960     0.04920     0.04880     0.04840     0.04800     0.04760     0.04720     0.04680     0.04640     0.04600     0.04560     0.04520     0.04480     0.04440     0.04400     0.04360     0.04320     0.04280     0.04240     0.04200     0.04160     0.04120     0.04080     0.04040     0.04000     0.03960     0.03920     0.03880     0.03840     0.03800     0.03760     0.03720     0.03680     0.03640     0.03600     0.03560     0.03520     0.03480     0.03440     0.03400     0.03360     0.03320     0.03280     0.03240     0.03200     0.03160     0.03120     0.03080     0.03040     0.03000     0.02667     0.02333     0.02000     0.01667     0.01333     0.01000     0.00667     0.00333     0.00000
0.78000     0.78000     0.78000     0.78000     0.78000     0.78000     0.78000     0.78000     0.78000     0.75397     0.72794     0.70191     0.67589     0.64986     0.62383     0.59780     0.57177     0.54574     0.51971     0.49369     0.46766     0.44163     0.41560     0.38957     0.36354     0.33751     0.31149     0.28546     0.25943     0.23340     0.20737     0.18134     0.15531     0.12929     0.10326     0.07920     0.07880     0.07840     0.07800     0.07760     0.07720     0.07680     0.07640     0.07600     0.07560     0.07520     0.07480     0.07440     0.07400     0.05963     0.04427     0.02891     0.01355    -0.00180    -0.01715    -0.03250    -0.04784    -0.06317    -0.07850    -0.09383    -0.10914    -0.12444    -0.13973    -0.15501    -0.17027    -0.18551    -0.20072    -0.21589    -0.23103    -0.24611    -0.26111    -0.27600    -0.29073    -0.30522    -0.31932    -0.33272    -0.34477    -0.35406    -0.35800    -0.35486    -0.34637    -0.33512    -0.32252    -0.30922    -0.29553    -0.28160    -0.26751    -0.25331    -0.23903    -0.22469    -0.21032    -0.19591    -0.18147    -0.16701    -0.15253    -0.13804    -0.12354    -0.10903    -0.09450    -0.07997    -0.06544    -0.05090    -0.03635    -0.02180    -0.00725     0.00731     0.02187     0.03643     0.05000     0.04960     0.04920     0.04880     0.04840     0.04800     0.04760     0.04720     0.04680     0.04640     0.04600     0.04560     0.04520     0.04480     0.04440     0.04400     0.04360     0.04320     0.04280     0.04240     0.04200     0.04160     0.04120     0.04080     0.04040     0.04000     0.03960     0.03920     0.03880     0.03840     0.03800     0.03760     0.03720     0.03680     0.03640     0.03600     0.03560     0.03520     0.03480     0.03440     0.03400     0.03360     0.03320     0.03280     0.03240     0.03200     0.03160     0.03120     0.03080     0.03040     0.03000     0.02667     0.02333     0.02000     0.01667     0.01333     0.01000     0.00667     0.00333     0.00000
0.78000     0.78000     0.78000     0.78000     0.78000     0.78000     0.78000     0.78000     0.78000     0.75486     0.72971     0.70457     0.67942     0.65428     0.62913     0.60399     0.57884     0.55370     0.52855     0.50341     0.47826     0.45312     0.42797     0.40283     0.37768     0.35254     0.32739     0.30225     0.27710     0.25196     0.22681     0.20167     0.17652     0.15138     0.12623     0.10109     0.07880     0.07840     0.07800     0.07760     0.07720     0.07680     0.07640     0.07600     0.07560     0.07520     0.07480     0.07440     0.07400     0.06092     0.04560     0.03029     0.01499    -0.00031    -0.01560    -0.03088    -0.04615    -0.06140    -0.07664    -0.09187    -0.10708    -0.12226    -0.13742    -0.15254    -0.16763    -0.18268    -0.19766    -0.21257    -0.22740    -0.24210    -0.25664    -0.27096    -0.28498    -0.29854    -0.31140    -0.32316    -0.33312    -0.34017    -0.34300    -0.34097    -0.33472    -0.32556    -0.31460    -0.30254    -0.28978    -0.27656    -0.26304    -0.24930    -0.23540    -0.22137    -0.20726    -0.19308    -0.17883    -0.16454    -0.15022    -0.13586    -0.12148    -0.10707    -0.09264    -0.07820    -0.06375    -0.04928    -0.03480    -0.02031    -0.00581     0.00869     0.02320     0.03772     0.05000     0.04960     0.04920     0.04880     0.04840     0.04800     0.04760     0.04720     0.04680     0.04640     0.04600     0.04560     0.04520     0.04480     0.04440     0.04400     0.04360     0.04320     0.04280     0.04240     0.04200     0.04160     0.04120     0.04080     0.04040     0.04000     0.03960     0.03920     0.03880     0.03840     0.03800     0.03760     0.03720     0.03680     0.03640     0.03600     0.03560     0.03520     0.03480     0.03440     0.03400     0.03360     0.03320     0.03280     0.03240     0.03200     0.03160     0.03120     0.03080     0.03040     0.03000     0.02667     0.02333     0.02000     0.01667     0.01333     0.01000     0.00667     0.00333     0.00000
0.78000     0.78000     0.78000     0.78000     0.78000     0.78000     0.78000     0.78000     0.78000     0.75568     0.73136     0.70704     0.68272     0.65840     0.63408     0.60976     0.58544     0.56112     0.53680     0.51248     0.48816     0.46384     0.43952     0.41520     0.39088     0.36656     0.34224     0.31792     0.29360     0.26928     0.24496     0.22064     0.19632     0.17200     0.14768     0.12336     0.09904     0.07840     0.07800     0.07760     0.07720     0.07680     0.07640     0.07600     0.07560     0.07520     0.07480     0.07440     0.07400     0.06272     0.04746     0.03222     0.01699     0.00177    -0.01343    -0.02862    -0.04379    -0.05894    -0.07406    -0.08915    -0.10421    -0.11924    -0.13421    -0.14914    -0.16400    -0.17878    -0.19346    -0.20803    -0.22245    -0.23667    -0.25064    -0.26427    -0.27743    -0.28995    -0.30155    -0.31180    -0.32012    -0.32575    -0.32800    -0.32655    -0.32172    -0.31420    -0.30475    -0.29395    -0.28223    -0.26987    -0.25704    -0.24387    -0.23045    -0.21683    -0.20306    -0.18918    -0.17520    -0.16114    -0.14701    -0.13284    -0.11861    -0.10435    -0.09006    -0.07574    -0.06139    -0.04702    -0.03263    -0.01823    -0.00381     0.01062     0.02506     0.03952     0.05000     0.04960     0.04920     0.04880     0.04840     0.04800     0.04760     0.04720     0.04680     0.04640     0.04600     0.04560     0.04520     0.04480     0.04440     0.04400     0.04360     0.04320     0.04280     0.04240     0.04200     0.04160     0.04120     0.04080     0.04040     0.04000     0.03960     0.03920     0.03880     0.03840     0.03800     0.03760     0.03720     0.03680     0.03640     0.03600     0.03560     0.03520     0.03480     0.03440     0.03400     0.03360     0.03320     0.03280     0.03240     0.03200     0.03160     0.03120     0.03080     0.03040     0.03000     0.02667     0.02333     0.02000     0.01667     0.01333     0.01000     0.00667     0.00333     0.00000
0.78000     0.78000     0.78000     0.78000     0.78000     0.78000     0.78000     0.78000     0.78000     0.75645     0.73290     0.70935     0.68581     0.66226     0.63871     0.61516     0.59161     0.56806     0.54452     0.52097     0.49742     0.47387     0.45032     0.42677     0.40323     0.37968     0.35613     0.33258     0.30903     0.28548     0.26193     0.23839     0.21484     0.19129     0.16774     0.14419     0.12064     0.09710     0.07800     0.07760     0.07720     0.07680     0.07640     0.07600     0.07560     0.07520     0.07480     0.07440     0.07400     0.06502     0.04984     0.03469     0.01955     0.00443    -0.01067    -0.02574    -0.04078    -0.05579    -0.07077    -0.08570    -0.10058    -0.11540    -0.13015    -0.14483    -0.15941    -0.17387    -0.18820    -0.20235    -0.21629    -0.22997    -0.24329    -0.25617    -0.26845    -0.27993    -0.29035    -0.29934    -0.30642    -0.31111    -0.31300    -0.31191    -0.30802    -0.30174    -0.29355    -0.28393    -0.27325    -0.26177    -0.24969    -0.23717    -0.22429    -0.21115    -0.19780    -0.18427    -0.17061    -0.15683    -0.14295    -0.12900    -0.11498    -0.10090    -0.08677    -0.07259    -0.05838    -0.04414    -0.02987    -0.01557    -0.00125     0.01309     0.02744     0.04182     0.05000     0.04960     0.04920     0.04880     0.04840     0.04800     0.04760     0.04720     0.04680     0.04640     0.04600     0.04560     0.04520     0.04480     0.04440     0.04400     0.04360     0.04320     0.04280     0.04240     0.04200     0.04160     0.04120     0.04080     0.04040     0.04000     0.03960     0.03920     0.03880     0.03840     0.03800     0.03760     0.03720     0.03680     0.03640     0.03600     0.03560     0.03520     0.03480     0.03440     0.03400     0.03360     0.03320     0.03280     0.03240     0.03200     0.03160     0.03120     0.03080     0.03040     0.03000     0.02667     0.02333     0.02000     0.01667     0.01333     0.01000     0.00667     0.00333     0.00000
0.78000     0.78000     0.78000     0.78000     0.78000     0.78000     0.78000     0.78000     0.78000     0.75717     0.73435     0.71152     0.68870     0.66587     0.64305     0.62022     0.59740     0.57457     0.55175     0.52892     0.50610     0.48327     0.46045     0.43762     0.41480     0.39197     0.36915     0.34632     0.32350     0.30067     0.27785     0.25502     0.23220     0.20937     0.18655     0.16372     0.14090     0.11807     0.09525     0.07760     0.07720     0.07680     0.07640     0.07600     0.07560     0.07520     0.07480     0.07440     0.07400     0.06781     0.05273     0.03768     0.02265     0.00765    -0.00732    -0.02225    -0.03715    -0.05200    -0.06679    -0.08153    -0.09620    -0.11078    -0.12528    -0.13967    -0.15393    -0.16803    -0.18195    -0.19565    -0.20907    -0.22215    -0.23480    -0.24691    -0.25832    -0.26885    -0.27823    -0.28618    -0.29233    -0.29636    -0.29800    -0.29716    -0.29393    -0.28858    -0.28143    -0.27285    -0.26312    -0.25251    -0.24120    -0.22935    -0.21707    -0.20445    -0.19155    -0.17843    -0.16513    -0.15167    -0.13808    -0.12438    -0.11060    -0.09673    -0.08279    -0.06880    -0.05475    -0.04065    -0.02652    -0.01235     0.00185     0.01608     0.03033     0.04461     0.05000     0.04960     0.04920     0.04880     0.04840     0.04800     0.04760     0.04720     0.04680     0.04640     0.04600     0.04560     0.04520     0.04480     0.04440     0.04400     0.04360     0.04320     0.04280     0.04240     0.04200     0.04160     0.04120     0.04080     0.04040     0.04000     0.03960     0.03920     0.03880     0.03840     0.03800     0.03760     0.03720     0.03680     0.03640     0.03600     0.03560     0.03520     0.03480     0.03440     0.03400     0.03360     0.03320     0.03280     0.03240     0.03200     0.03160     0.03120     0.03080     0.03040     0.03000     0.02667     0.02333     0.02000     0.01667     0.01333     0.01000     0.00667     0.00333     0.00000
0.78000     0.78000     0.78000     0.78000     0.78000     0.78000     0.78000     0.78000     0.78000     0.75785     0.73571     0.71356     0.69142     0.66927     0.64713     0.62498     0.60284     0.58069     0.55855     0.53640     0.51425     0.49211     0.46996     0.44782     0.42567     0.40353     0.38138     0.35924     0.33709     0.31494     0.29280     0.27065     0.24851     0.22636     0.20422     0.18207     0.15993     0.13778     0.11564     0.09349     0.07720     0.07680     0.07640     0.07600     0.07560     0.07520     0.07480     0.07440     0.07400     0.07109     0.05613     0.04119     0.02629     0.01142    -0.00340    -0.01818    -0.03290    -0.04756    -0.06216    -0.07667    -0.09110    -0.10543    -0.11964    -0.13371    -0.14761    -0.16133    -0.17481    -0.18802    -0.20090    -0.21337    -0.22535    -0.23671    -0.24731    -0.25697    -0.26547    -0.27256    -0.27800    -0.28153    -0.28300    -0.28233    -0.27960    -0.27496    -0.26867    -0.26097    -0.25211    -0.24231    -0.23175    -0.22057    -0.20890    -0.19682    -0.18441    -0.17173    -0.15881    -0.14571    -0.13244    -0.11903    -0.10550    -0.09187    -0.07816    -0.06436    -0.05050    -0.03658    -0.02260    -0.00858     0.00549     0.01959     0.03373     0.04789     0.05000     0.04960     0.04920     0.04880     0.04840     0.04800     0.04760     0.04720     0.04680     0.04640     0.04600     0.04560     0.04520     0.04480     0.04440     0.04400     0.04360     0.04320     0.04280     0.04240     0.04200     0.04160     0.04120     0.04080     0.04040     0.04000     0.03960     0.03920     0.03880     0.03840     0.03800     0.03760     0.03720     0.03680     0.03640     0.03600     0.03560     0.03520     0.03480     0.03440     0.03400     0.03360     0.03320     0.03280     0.03240     0.03200     0.03160     0.03120     0.03080     0.03040     0.03000     0.02667     0.02333     0.02000     0.01667     0.01333     0.01000     0.00667     0.00333     0.00000
0.78000     0.78000     0.78000     0.78000     0.78000     0.78000     0.78000     0.78000     0.78000     0.75849     0.73699     0.71548     0.69398     0.67247     0.65096     0.62946     0.60795     0.58645     0.56494     0.54343     0.52193     0.50042     0.47892     0.45741     0.43591     0.41440     0.39289     0.37139     0.34988     0.32838     0.30687     0.28536     0.26386     0.24235     0.22085     0.19934     0.17783     0.15633     0.13482     0.11332     0.09181     0.07680     0.07640     0.07600     0.07560     0.07520     0.07480     0.07440     0.07400     0.07360     0.06001     0.04520     0.03044     0.01573     0.00107    -0.01353    -0.02806    -0.04252    -0.05689    -0.07117    -0.08533    -0.09938    -0.11327    -0.12700    -0.14053    -0.15383    -0.16687    -0.17958    -0.19191    -0.20378    -0.21509    -0.22575    -0.23560    -0.24449    -0.25224    -0.25864    -0.26351    -0.26667    -0.26800    -0.26747    -0.26511    -0.26104    -0.25544    -0.24849    -0.24040    -0.23135    -0.22149    -0.21098    -0.19991    -0.18838    -0.17647    -0.16423    -0.15173    -0.13900    -0.12607    -0.11298    -0.09973    -0.08637    -0.07289    -0.05932    -0.04566    -0.03193    -0.01813    -0.00427     0.00964     0.02360     0.03761     0.05040     0.05000     0.04960     0.04920     0.04880     0.04840     0.04800     0.04760     0.04720     0.04680     0.04640     0.04600     0.04560     0.04520     0.04480     0.04440     0.04400     0.04360     0.04320     0.04280     0.04240     0.04200     0.04160     0.04120     0.04080     0.04040     0.04000     0.03960     0.03920     0.03880     0.03840     0.03800     0.03760     0.03720     0.03680     0.03640     0.03600     0.03560     0.03520     0.03480     0.03440     0.03400     0.03360     0.03320     0.03280     0.03240     0.03200     0.03160     0.03120     0.03080     0.03040     0.03000     0.02667     0.02333     0.02000     0.01667     0.01333     0.01000     0.00667     0.00333     0.00000
0.78000     0.78000     0.78000     0.78000     0.78000     0.78000     0.78000     0.78000     0.78000     0.75910     0.73819     0.71729     0.69639     0.67549     0.65458     0.63368     0.61278     0.59187     0.57097     0.55007     0.52917     0.50826     0.48736     0.46646     0.44555     0.42465     0.40375     0.38284     0.36194     0.34104     0.32014     0.29923     0.27833     0.25743     0.23652     0.21562     0.19472     0.17382     0.15291     0.13201     0.11111     0.09020     0.07640     0.07600     0.07560     0.07520     0.07480     0.07440     0.07400     0.07360     0.06436     0.04971     0.03510     0.02056     0.00608    -0.00833    -0.02265    -0.03689    -0.05102    -0.06504    -0.07893    -0.09267    -0.10624    -0.11961    -0.13275    -0.14563    -0.15820    -0.17041    -0.18220    -0.19348    -0.20418    -0.21417    -0.22335    -0.23157    -0.23867    -0.24450    -0.24891    -0.25177    -0.25300    -0.25257    -0.25051    -0.24690    -0.24187    -0.23557    -0.22815    -0.21977    -0.21058    -0.20068    -0.19020    -0.17921    -0.16780    -0.15603    -0.14395    -0.13161    -0.11904    -0.10627    -0.09333    -0.08024    -0.06702    -0.05369    -0.04025    -0.02673    -0.01312     0.00056     0.01430     0.02811     0.04196     0.05040     0.05000     0.04960     0.04920     0.04880     0.04840     0.04800     0.04760     0.04720     0.04680     0.04640     0.04600     0.04560     0.04520     0.04480     0.04440     0.04400     0.04360     0.04320     0.04280     0.04240     0.04200     0.04160     0.04120     0.04080     0.04040     0.04000     0.03960     0.03920     0.03880     0.03840     0.03800     0.03760     0.03720     0.03680     0.03640     0.03600     0.03560     0.03520     0.03480     0.03440     0.03400     0.03360     0.03320     0.03280     0.03240     0.03200     0.03160     0.03120     0.03080     0.03040     0.03000     0.02667     0.02333     0.02000     0.01667     0.01333     0.01000     0.00667     0.00333     0.00000
0.78000     0.78000     0.78000     0.78000     0.78000     0.78000     0.78000     0.78000     0.78000     0.75967     0.73933     0.71900     0.69867     0.67833     0.65800     0.63767     0.61733     0.59700     0.57667     0.55633     0.53600     0.51567     0.49533     0.47500     0.45467     0.43433     0.41400     0.39367     0.37333     0.35300     0.33267     0.31233     0.29200     0.27167     0.25133     0.23100     0.21067     0.19033     0.17000     0.14967     0.12933     0.10900     0.08867     0.07600     0.07560     0.07520     0.07480     0.07440     0.07400     0.07360     0.06918     0.05469     0.04025     0.02589     0.01160    -0.00260    -0.01671    -0.03071    -0.04459    -0.05834    -0.07193    -0.08535    -0.09858    -0.11158    -0.12433    -0.13678    -0.14889    -0.16061    -0.17187    -0.18260    -0.19271    -0.20210    -0.21067    -0.21829    -0.22485    -0.23020    -0.23423    -0.23685    -0.23800    -0.23765    -0.23583    -0.23260    -0.22805    -0.22229    -0.21547    -0.20770    -0.19911    -0.18980    -0.17987    -0.16941    -0.15849    -0.14718    -0.13553    -0.12358    -0.11138    -0.09895    -0.08633    -0.07354    -0.06059    -0.04751    -0.03431    -0.02100    -0.00760     0.00589     0.01945     0.03309     0.04678     0.05040     0.05000     0.04960     0.04920     0.04880     0.04840     0.04800     0.04760     0.04720     0.04680     0.04640     0.04600     0.04560     0.04520     0.04480     0.04440     0.04400     0.04360     0.04320     0.04280     0.04240     0.04200     0.04160     0.04120     0.04080     0.04040     0.04000     0.03960     0.03920     0.03880     0.03840     0.03800     0.03760     0.03720     0.03680     0.03640     0.03600     0.03560     0.03520     0.03480     0.03440     0.03400     0.03360     0.03320     0.03280     0.03240     0.03200     0.03160     0.03120     0.03080     0.03040     0.03000     0.02667     0.02333     0.02000     0.01667     0.01333     0.01000     0.00667     0.00333     0.00000
0.78000     0.78000     0.78000     0.78000     0.78000     0.78000     0.78000     0.78000     0.78000     0.76021     0.74041     0.72062     0.70082     0.68103     0.66123     0.64144     0.62164     0.60185     0.58205     0.56226     0.54246     0.52267     0.50288     0.48308     0.46329     0.44349     0.42370     0.40390     0.38411     0.36431     0.34452     0.32472     0.30493     0.28513     0.26534     0.24554     0.22575     0.20596     0.18616     0.16637     0.14657     0.12678     0.10698     0.08719     0.07560     0.07520     0.07480     0.07440     0.07400     0.07360     0.07320     0.06012     0.04587     0.03169     0.01761     0.00363    -0.01025    -0.02400    -0.03762    -0.05108    -0.06437    -0.07747    -0.09035    -0.10298    -0.11533    -0.12736    -0.13902    -0.15025    -0.16101    -0.17121    -0.18078    -0.18962    -0.19765    -0.20475    -0.21083    -0.21577    -0.21949    -0.22192    -0.22300    -0.22272    -0.22109    -0.21817    -0.21403    -0.20875    -0.20245    -0.19522    -0.18718    -0.17841    -0.16901    -0.15905    -0.14862    -0.13776    -0.12653    -0.11498    -0.10315    -0.09107    -0.07877    -0.06628    -0.05362    -0.04080    -0.02785    -0.01477    -0.00159     0.01169     0.02507     0.03852     0.05080     0.05040     0.05000     0.04960     0.04920     0.04880     0.04840     0.04800     0.04760     0.04720     0.04680     0.04640     0.04600     0.04560     0.04520     0.04480     0.04440     0.04400     0.04360     0.04320     0.04280     0.04240     0.04200     0.04160     0.04120     0.04080     0.04040     0.04000     0.03960     0.03920     0.03880     0.03840     0.03800     0.03760     0.03720     0.03680     0.03640     0.03600     0.03560     0.03520     0.03480     0.03440     0.03400     0.03360     0.03320     0.03280     0.03240     0.03200     0.03160     0.03120     0.03080     0.03040     0.03000     0.02667     0.02333     0.02000     0.01667     0.01333     0.01000     0.00667     0.00333     0.00000
0.78000     0.78000     0.78000     0.78000     0.78000     0.78000     0.78000     0.78000     0.78000     0.76072     0.74143     0.72215     0.70286     0.68358     0.66429     0.64501     0.62573     0.60644     0.58716     0.56787     0.54859     0.52930     0.51002     0.49074     0.47145     0.45217     0.43288     0.41360     0.39431     0.37503     0.35575     0.33646     0.31718     0.29789     0.27861     0.25932     0.24004     0.22076     0.20147     0.18219     0.16290     0.14362     0.12434     0.10505     0.08577     0.07520     0.07480     0.07440     0.07400     0.07360     0.07320     0.06600     0.05193     0.03796     0.02409     0.01033    -0.00330    -0.01680    -0.03014    -0.04332    -0.05630    -0.06907    -0.08160    -0.09386    -0.10581    -0.11742    -0.12864    -0.13942    -0.14969    -0.15940    -0.16847    -0.17681    -0.18435    -0.19100    -0.19666    -0.20126    -0.20472    -0.20698    -0.20800    -0.20778    -0.20632    -0.20366    -0.19986    -0.19500    -0.18915    -0.18241    -0.17487    -0.16660    -0.15769    -0.14822    -0.13824    -0.12782    -0.11701    -0.10586    -0.09440    -0.08267    -0.07070    -0.05852    -0.04614    -0.03360    -0.02090    -0.00807     0.00489     0.01796     0.03113     0.04440     0.05080     0.05040     0.05000     0.04960     0.04920     0.04880     0.04840     0.04800     0.04760     0.04720     0.04680     0.04640     0.04600     0.04560     0.04520     0.04480     0.04440     0.04400     0.04360     0.04320     0.04280     0.04240     0.04200     0.04160     0.04120     0.04080     0.04040     0.04000     0.03960     0.03920     0.03880     0.03840     0.03800     0.03760     0.03720     0.03680     0.03640     0.03600     0.03560     0.03520     0.03480     0.03440     0.03400     0.03360     0.03320     0.03280     0.03240     0.03200     0.03160     0.03120     0.03080     0.03040     0.03000     0.02667     0.02333     0.02000     0.01667     0.01333     0.01000     0.00667     0.00333     0.00000
0.78000     0.78000     0.78000     0.78000     0.78000     0.78000     0.78000     0.78000     0.78000     0.76120     0.74240     0.72360     0.70480     0.68600     0.66720     0.64840     0.62960     0.61080     0.59200     0.57320     0.55440     0.53560     0.51680     0.49800     0.47920     0.46040     0.44160     0.42280     0.40400     0.38520     0.36640     0.34760     0.32880     0.31000     0.29120     0.27240     0.25360     0.23480     0.21600     0.19720     0.17840     0.15960     0.14080     0.12200     0.10320     0.08440     0.07480     0.07440     0.07400     0.07360     0.07320     0.07230     0.05843     0.04467     0.03102     0.01750     0.00411    -0.00913    -0.02219    -0.03507    -0.04775    -0.06019    -0.07237    -0.08426    -0.09583    -0.10703    -0.11782    -0.12816    -0.13798    -0.14723    -0.15583    -0.16373    -0.17083    -0.17707    -0.18238    -0.18668    -0.18991    -0.19202    -0.19300    -0.19282    -0.19151    -0.18908    -0.18558    -0.18107    -0.17563    -0.16933    -0.16223    -0.15443    -0.14598    -0.13696    -0.12742    -0.11743    -0.10703    -0.09626    -0.08517    -0.07379    -0.06215    -0.05027    -0.03819    -0.02593    -0.01349    -0.00090     0.01182     0.02467     0.03763     0.05070     0.05080     0.05040     0.05000     0.04960     0.04920     0.04880     0.04840     0.04800     0.04760     0.04720     0.04680     0.04640     0.04600     0.04560     0.04520     0.04480     0.04440     0.04400     0.04360     0.04320     0.04280     0.04240     0.04200     0.04160     0.04120     0.04080     0.04040     0.04000     0.03960     0.03920     0.03880     0.03840     0.03800     0.03760     0.03720     0.03680     0.03640     0.03600     0.03560     0.03520     0.03480     0.03440     0.03400     0.03360     0.03320     0.03280     0.03240     0.03200     0.03160     0.03120     0.03080     0.03040     0.03000     0.02667     0.02333     0.02000     0.01667     0.01333     0.01000     0.00667     0.00333     0.00000
0.78000     0.78000     0.78000     0.78000     0.78000     0.78000     0.78000     0.78000     0.78000     0.76166     0.74332     0.72498     0.70664     0.68830     0.66996     0.65162     0.63328     0.61494     0.59660     0.57826     0.55992     0.54158     0.52324     0.50490     0.48656     0.46822     0.44988     0.43154     0.41320     0.39486     0.37652     0.35818     0.33984     0.32150     0.30316     0.28482     0.26648     0.24814     0.22980     0.21146     0.19312     0.17478     0.15644     0.13810     0.11976     0.10142     0.08308     0.07440     0.07400     0.07360     0.07320     0.07280     0.06534     0.05180     0.03837     0.02509     0.01195    -0.00102    -0.01380    -0.02639    -0.03875    -0.05086    -0.06270    -0.07423    -0.08542    -0.09623    -0.10661    -0.11653    -0.12593    -0.13475    -0.14293    -0.15041    -0.15713    -0.16301    -0.16800    -0.17203    -0.17507    -0.17707    -0.17800    -0.17787    -0.17667    -0.17443    -0.17120    -0.16701    -0.16193    -0.15601    -0.14933    -0.14195    -0.13393    -0.12533    -0.11621    -0.10663    -0.09662    -0.08623    -0.07550    -0.06446    -0.05315    -0.04159    -0.02980    -0.01782    -0.00565     0.00669     0.01917     0.03180     0.04454     0.05120     0.05080     0.05040     0.05000     0.04960     0.04920     0.04880     0.04840     0.04800     0.04760     0.04720     0.04680     0.04640     0.04600     0.04560     0.04520     0.04480     0.04440     0.04400     0.04360     0.04320     0.04280     0.04240     0.04200     0.04160     0.04120     0.04080     0.04040     0.04000     0.03960     0.03920     0.03880     0.03840     0.03800     0.03760     0.03720     0.03680     0.03640     0.03600     0.03560     0.03520     0.03480     0.03440     0.03400     0.03360     0.03320     0.03280     0.03240     0.03200     0.03160     0.03120     0.03080     0.03040     0.03000     0.02667     0.02333     0.02000     0.01667     0.01333     0.01000     0.00667     0.00333     0.00000
0.78000     0.78000     0.78000     0.78000     0.78000     0.78000     0.78000     0.78000     0.78000     0.76210     0.74420     0.72629     0.70839     0.69049     0.67259     0.65468     0.63678     0.61888     0.60098     0.58307     0.56517     0.54727     0.52937     0.51146     0.49356     0.47566     0.45776     0.43985     0.42195     0.40405     0.38615     0.36824     0.35034     0.33244     0.31454     0.29663     0.27873     0.26083     0.24293     0.22502     0.20712     0.18922     0.17132     0.15341     0.13551     0.11761     0.09971     0.08180     0.07400     0.07360     0.07320     0.07280     0.07240     0.05932     0.04613     0.03309     0.02021     0.00750    -0.00500    -0.01729    -0.02934    -0.04113    -0.05262    -0.06380    -0.07463    -0.08506    -0.09506    -0.10458    -0.11358    -0.12201    -0.12980    -0.13691    -0.14327    -0.14883    -0.15354    -0.15734    -0.16021    -0.16210    -0.16300    -0.16290    -0.16181    -0.15974    -0.15674    -0.15283    -0.14807    -0.14251    -0.13620    -0.12921    -0.12158    -0.11338    -0.10466    -0.09546    -0.08583    -0.07580    -0.06542    -0.05473    -0.04374    -0.03249    -0.02100    -0.00930     0.00261     0.01469     0.02693     0.03932     0.05160     0.05120     0.05080     0.05040     0.05000     0.04960     0.04920     0.04880     0.04840     0.04800     0.04760     0.04720     0.04680     0.04640     0.04600     0.04560     0.04520     0.04480     0.04440     0.04400     0.04360     0.04320     0.04280     0.04240     0.04200     0.04160     0.04120     0.04080     0.04040     0.04000     0.03960     0.03920     0.03880     0.03840     0.03800     0.03760     0.03720     0.03680     0.03640     0.03600     0.03560     0.03520     0.03480     0.03440     0.03400     0.03360     0.03320     0.03280     0.03240     0.03200     0.03160     0.03120     0.03080     0.03040     0.03000     0.02667     0.02333     0.02000     0.01667     0.01333     0.01000     0.00667     0.00333     0.00000
0.78000     0.78000     0.78000     0.78000     0.78000     0.78000     0.78000     0.78000     0.78000     0.76251     0.74503     0.72754     0.71006     0.69257     0.67509     0.65760     0.64011     0.62263     0.60514     0.58766     0.57017     0.55269     0.53520     0.51771     0.50023     0.48274     0.46526     0.44777     0.43028     0.41280     0.39531     0.37783     0.36034     0.34286     0.32537     0.30788     0.29040     0.27291     0.25543     0.23794     0.22046     0.20297     0.18548     0.16800     0.15051     0.13303     0.11554     0.09806     0.08057     0.07360     0.07320     0.07280     0.07240     0.06722     0.05427     0.04147     0.02884     0.01641     0.00419    -0.00781    -0.01955    -0.03102    -0.04219    -0.05302    -0.06350    -0.07357    -0.08320    -0.09235    -0.10098    -0.10904    -0.11647    -0.12324    -0.12928    -0.13455    -0.13901    -0.14262    -0.14533    -0.14713    -0.14800    -0.14793    -0.14693    -0.14502    -0.14221    -0.13855    -0.13408    -0.12884    -0.12287    -0.11624    -0.10898    -0.10115    -0.09280    -0.08397    -0.07470    -0.06502    -0.05499    -0.04462    -0.03395    -0.02301    -0.01181    -0.00039     0.01124     0.02307     0.03507     0.04722     0.05160     0.05120     0.05080     0.05040     0.05000     0.04960     0.04920     0.04880     0.04840     0.04800     0.04760     0.04720     0.04680     0.04640     0.04600     0.04560     0.04520     0.04480     0.04440     0.04400     0.04360     0.04320     0.04280     0.04240     0.04200     0.04160     0.04120     0.04080     0.04040     0.04000     0.03960     0.03920     0.03880     0.03840     0.03800     0.03760     0.03720     0.03680     0.03640     0.03600     0.03560     0.03520     0.03480     0.03440     0.03400     0.03360     0.03320     0.03280     0.03240     0.03200     0.03160     0.03120     0.03080     0.03040     0.03000     0.02667     0.02333     0.02000     0.01667     0.01333     0.01000     0.00667     0.00333     0.00000
0.78000     0.78000     0.78000     0.78000     0.78000     0.78000     0.78000     0.78000     0.78000     0.76291     0.74582     0.72873     0.71165     0.69456     0.67747     0.66038     0.64329     0.62620     0.60912     0.59203     0.57494     0.55785     0.54076     0.52367     0.50659     0.48950     0.47241     0.45532     0.43823     0.42114     0.40405     0.38697     0.36988     0.35279     0.33570     0.31861     0.30152     0.28444     0.26735     0.25026     0.23317     0.21608     0.19899     0.18191     0.16482     0.14773     0.13064     0.11355     0.09646     0.07937     0.07320     0.07280     0.07240     0.07200     0.06276     0.05021     0.03784     0.02568     0.01373     0.00203    -0.00942    -0.02058    -0.03142    -0.04193    -0.05206    -0.06179    -0.07107    -0.07987    -0.08815    -0.09587    -0.10298    -0.10943    -0.11518    -0.12020    -0.12444    -0.12786    -0.13044    -0.13216    -0.13300    -0.13296    -0.13204    -0.13026    -0.12764    -0.12420    -0.11998    -0.11503    -0.10938    -0.10307    -0.09615    -0.08867    -0.08067    -0.07219    -0.06326    -0.05393    -0.04422    -0.03418    -0.02382    -0.01317    -0.00227     0.00888     0.02024     0.03181     0.04356     0.05200     0.05160     0.05120     0.05080     0.05040     0.05000     0.04960     0.04920     0.04880     0.04840     0.04800     0.04760     0.04720     0.04680     0.04640     0.04600     0.04560     0.04520     0.04480     0.04440     0.04400     0.04360     0.04320     0.04280     0.04240     0.04200     0.04160     0.04120     0.04080     0.04040     0.04000     0.03960     0.03920     0.03880     0.03840     0.03800     0.03760     0.03720     0.03680     0.03640     0.03600     0.03560     0.03520     0.03480     0.03440     0.03400     0.03360     0.03320     0.03280     0.03240     0.03200     0.03160     0.03120     0.03080     0.03040     0.03000     0.02667     0.02333     0.02000     0.01667     0.01333     0.01000     0.00667     0.00333     0.00000
0.78000     0.78000     0.78000     0.78000     0.78000     0.78000     0.78000     0.78000     0.78000     0.76329     0.74658     0.72987     0.71316     0.69645     0.67975     0.66304     0.64633     0.62962     0.61291     0.59620     0.57949     0.56278     0.54607     0.52936     0.51265     0.49594     0.47924     0.46253     0.44582     0.42911     0.41240     0.39569     0.37898     0.36227     0.34556     0.32885     0.31214     0.29543     0.27873     0.26202     0.24531     0.22860     0.21189     0.19518     0.17847     0.16176     0.14505     0.12834     0.11163     0.09493     0.07822     0.07280     0.07240     0.07200     0.07160     0.05929     0.04718     0.03528     0.02361     0.01219     0.00104    -0.00982    -0.02035    -0.03054    -0.04035    -0.04975    -0.05870    -0.06717    -0.07513    -0.08253    -0.08933    -0.09550    -0.10100    -0.10578    -0.10981    -0.11308    -0.11554    -0.11718    -0.11800    -0.11798    -0.11714    -0.11548    -0.11301    -0.10978    -0.10580    -0.10110    -0.09573    -0.08973    -0.08313    -0.07597    -0.06830    -0.06015    -0.05155    -0.04254    -0.03315    -0.02342    -0.01336    -0.00301     0.00761     0.01848     0.02958     0.04089     0.05240     0.05200     0.05160     0.05120     0.05080     0.05040     0.05000     0.04960     0.04920     0.04880     0.04840     0.04800     0.04760     0.04720     0.04680     0.04640     0.04600     0.04560     0.04520     0.04480     0.04440     0.04400     0.04360     0.04320     0.04280     0.04240     0.04200     0.04160     0.04120     0.04080     0.04040     0.04000     0.03960     0.03920     0.03880     0.03840     0.03800     0.03760     0.03720     0.03680     0.03640     0.03600     0.03560     0.03520     0.03480     0.03440     0.03400     0.03360     0.03320     0.03280     0.03240     0.03200     0.03160     0.03120     0.03080     0.03040     0.03000     0.02667     0.02333     0.02000     0.01667     0.01333     0.01000     0.00667     0.00333     0.00000
0.78000     0.78000     0.78000     0.78000     0.78000     0.78000     0.78000     0.78000     0.78000     0.76365     0.74731     0.73096     0.71461     0.69827     0.68192     0.66557     0.64923     0.63288     0.61653     0.60019     0.58384     0.56749     0.55115     0.53480     0.51845     0.50211     0.48576     0.46941     0.45307     0.43672     0.42037     0.40403     0.38768     0.37133     0.35499     0.33864     0.32229     0.30595     0.28960     0.27325     0.25690     0.24056     0.22421     0.20786     0.19152     0.17517     0.15882     0.14248     0.12613     0.10978     0.09344     0.07709     0.07240     0.07200     0.07160     0.06869     0.05683     0.04519     0.03379     0.02265     0.01179     0.00123    -0.00901    -0.01889    -0.02839    -0.03747    -0.04612    -0.05428    -0.06194    -0.06904    -0.07557    -0.08147    -0.08673    -0.09130    -0.09515    -0.09827    -0.10063    -0.10221    -0.10300    -0.10301    -0.10223    -0.10067    -0.09835    -0.09530    -0.09153    -0.08707    -0.08197    -0.07624    -0.06994    -0.06308    -0.05572    -0.04787    -0.03959    -0.03089    -0.02181    -0.01237    -0.00261     0.00745     0.01779     0.02839     0.03923     0.05029     0.05240     0.05200     0.05160     0.05120     0.05080     0.05040     0.05000     0.04960     0.04920     0.04880     0.04840     0.04800     0.04760     0.04720     0.04680     0.04640     0.04600     0.04560     0.04520     0.04480     0.04440     0.04400     0.04360     0.04320     0.04280     0.04240     0.04200     0.04160     0.04120     0.04080     0.04040     0.04000     0.03960     0.03920     0.03880     0.03840     0.03800     0.03760     0.03720     0.03680     0.03640     0.03600     0.03560     0.03520     0.03480     0.03440     0.03400     0.03360     0.03320     0.03280     0.03240     0.03200     0.03160     0.03120     0.03080     0.03040     0.03000     0.02667     0.02333     0.02000     0.01667     0.01333     0.01000     0.00667     0.00333     0.00000
0.78000     0.78000     0.78000     0.78000     0.78000     0.78000     0.78000     0.78000     0.78000     0.76400     0.74800     0.73200     0.71600     0.70000     0.68400     0.66800     0.65200     0.63600     0.62000     0.60400     0.58800     0.57200     0.55600     0.54000     0.52400     0.50800     0.49200     0.47600     0.46000     0.44400     0.42800     0.41200     0.39600     0.38000     0.36400     0.34800     0.33200     0.31600     0.30000     0.28400     0.26800     0.25200     0.23600     0.22000     0.20400     0.18800     0.17200     0.15600     0.14000     0.12400     0.10800     0.09200     0.07600     0.07200     0.07160     0.07120     0.06678     0.05540     0.04426     0.03339     0.02281     0.01253     0.00259    -0.00700    -0.01620    -0.02499    -0.03334    -0.04122    -0.04859    -0.05542    -0.06169    -0.06736    -0.07239    -0.07677    -0.08046    -0.08344    -0.08570    -0.08723    -0.08800    -0.08803    -0.08730    -0.08584    -0.08366    -0.08077    -0.07719    -0.07296    -0.06809    -0.06262    -0.05659    -0.05002    -0.04294    -0.03539    -0.02740    -0.01900    -0.01021    -0.00107     0.00841     0.01819     0.02826     0.03860     0.04918     0.05280     0.05240     0.05200     0.05160     0.05120     0.05080     0.05040     0.05000     0.04960     0.04920     0.04880     0.04840     0.04800     0.04760     0.04720     0.04680     0.04640     0.04600     0.04560     0.04520     0.04480     0.04440     0.04400     0.04360     0.04320     0.04280     0.04240     0.04200     0.04160     0.04120     0.04080     0.04040     0.04000     0.03960     0.03920     0.03880     0.03840     0.03800     0.03760     0.03720     0.03680     0.03640     0.03600     0.03560     0.03520     0.03480     0.03440     0.03400     0.03360     0.03320     0.03280     0.03240     0.03200     0.03160     0.03120     0.03080     0.03040     0.03000     0.02667     0.02333     0.02000     0.01667     0.01333     0.01000     0.00667     0.00333     0.00000
0.78000     0.78000     0.78000     0.78000     0.78000     0.78000     0.78000     0.78000     0.78000     0.76433     0.74866     0.73300     0.71733     0.70166     0.68599     0.67032     0.65465     0.63899     0.62332     0.60765     0.59198     0.57631     0.56065     0.54498     0.52931     0.51364     0.49797     0.48231     0.46664     0.45097     0.43530     0.41963     0.40396     0.38830     0.37263     0.35696     0.34129     0.32562     0.30996     0.29429     0.27862     0.26295     0.24728     0.23162     0.21595     0.20028     0.18461     0.16894     0.15327     0.13761     0.12194     0.10627     0.09060     0.07493     0.07160     0.07120     0.07080     0.06588     0.05500     0.04439     0.03408     0.02408     0.01441     0.00510    -0.00382    -0.01233    -0.02040    -0.02800    -0.03511    -0.04169    -0.04772    -0.05316    -0.05800    -0.06219    -0.06574    -0.06860    -0.07077    -0.07224    -0.07300    -0.07304    -0.07237    -0.07100    -0.06894    -0.06619    -0.06280    -0.05876    -0.05412    -0.04889    -0.04311    -0.03680    -0.03000    -0.02273    -0.01502    -0.00690     0.00161     0.01048     0.01968     0.02919     0.03900     0.04908     0.05320     0.05280     0.05240     0.05200     0.05160     0.05120     0.05080     0.05040     0.05000     0.04960     0.04920     0.04880     0.04840     0.04800     0.04760     0.04720     0.04680     0.04640     0.04600     0.04560     0.04520     0.04480     0.04440     0.04400     0.04360     0.04320     0.04280     0.04240     0.04200     0.04160     0.04120     0.04080     0.04040     0.04000     0.03960     0.03920     0.03880     0.03840     0.03800     0.03760     0.03720     0.03680     0.03640     0.03600     0.03560     0.03520     0.03480     0.03440     0.03400     0.03360     0.03320     0.03280     0.03240     0.03200     0.03160     0.03120     0.03080     0.03040     0.03000     0.02667     0.02333     0.02000     0.01667     0.01333     0.01000     0.00667     0.00333     0.00000
0.78000     0.78000     0.78000     0.78000     0.78000     0.78000     0.78000     0.78000     0.78000     0.76465     0.74930     0.73395     0.71860     0.70325     0.68790     0.67255     0.65720     0.64185     0.62650     0.61115     0.59580     0.58045     0.56510     0.54975     0.53440     0.51905     0.50370     0.48835     0.47300     0.45765     0.44230     0.42695     0.41160     0.39625     0.38090     0.36555     0.35020     0.33485     0.31950     0.30415     0.28880     0.27345     0.25810     0.24275     0.22740     0.21205     0.19670     0.18135     0.16600     0.15065     0.13530     0.11995     0.10460     0.08925     0.07390     0.07120     0.07080     0.07040     0.06598     0.05563     0.04558     0.03584     0.02644     0.01741     0.00875     0.00051    -0.00730    -0.01465    -0.02151    -0.02785    -0.03366    -0.03890    -0.04355    -0.04758    -0.05099    -0.05375    -0.05584    -0.05726    -0.05800    -0.05806    -0.05744    -0.05615    -0.05419    -0.05158    -0.04835    -0.04450    -0.04006    -0.03505    -0.02951    -0.02345    -0.01690    -0.00989    -0.00245     0.00541     0.01364     0.02224     0.03118     0.04043     0.04998     0.05360     0.05320     0.05280     0.05240     0.05200     0.05160     0.05120     0.05080     0.05040     0.05000     0.04960     0.04920     0.04880     0.04840     0.04800     0.04760     0.04720     0.04680     0.04640     0.04600     0.04560     0.04520     0.04480     0.04440     0.04400     0.04360     0.04320     0.04280     0.04240     0.04200     0.04160     0.04120     0.04080     0.04040     0.04000     0.03960     0.03920     0.03880     0.03840     0.03800     0.03760     0.03720     0.03680     0.03640     0.03600     0.03560     0.03520     0.03480     0.03440     0.03400     0.03360     0.03320     0.03280     0.03240     0.03200     0.03160     0.03120     0.03080     0.03040     0.03000     0.02667     0.02333     0.02000     0.01667     0.01333     0.01000     0.00667     0.00333     0.00000
0.78000     0.78000     0.78000     0.78000     0.78000     0.78000     0.78000     0.78000     0.78000     0.76496     0.74991     0.73487     0.71982     0.70478     0.68973     0.67469     0.65964     0.64460     0.62955     0.61451     0.59946     0.58442     0.56937     0.55433     0.53928     0.52424     0.50919     0.49415     0.47910     0.46406     0.44901     0.43397     0.41892     0.40388     0.38883     0.37379     0.35874     0.34370     0.32865     0.31361     0.29856     0.28352     0.26847     0.25343     0.23838     0.22334     0.20829     0.19325     0.17820     0.16316     0.14811     0.13307     0.11802     0.10298     0.08793     0.07289     0.07080     0.07040     0.07000     0.06709     0.05729     0.04781     0.03867     0.02989     0.02149     0.01350     0.00593    -0.00117    -0.00780    -0.01393    -0.01953    -0.02458    -0.02905    -0.03294    -0.03622    -0.03888    -0.04090    -0.04227    -0.04300    -0.04307    -0.04250    -0.04128    -0.03942    -0.03694    -0.03385    -0.03018    -0.02593    -0.02113    -0.01580    -0.00997    -0.00367     0.00310     0.01029     0.01789     0.02587     0.03421     0.04289     0.05189     0.05400     0.05360     0.05320     0.05280     0.05240     0.05200     0.05160     0.05120     0.05080     0.05040     0.05000     0.04960     0.04920     0.04880     0.04840     0.04800     0.04760     0.04720     0.04680     0.04640     0.04600     0.04560     0.04520     0.04480     0.04440     0.04400     0.04360     0.04320     0.04280     0.04240     0.04200     0.04160     0.04120     0.04080     0.04040     0.04000     0.03960     0.03920     0.03880     0.03840     0.03800     0.03760     0.03720     0.03680     0.03640     0.03600     0.03560     0.03520     0.03480     0.03440     0.03400     0.03360     0.03320     0.03280     0.03240     0.03200     0.03160     0.03120     0.03080     0.03040     0.03000     0.02667     0.02333     0.02000     0.01667     0.01333     0.01000     0.00667     0.00333     0.00000
0.78000     0.78000     0.78000     0.78000     0.78000     0.78000     0.78000     0.78000     0.78000     0.76525     0.75050     0.73574     0.72099     0.70624     0.69149     0.67674     0.66198     0.64723     0.63248     0.61773     0.60298     0.58822     0.57347     0.55872     0.54397     0.52922     0.51446     0.49971     0.48496     0.47021     0.45545     0.44070     0.42595     0.41120     0.39645     0.38169     0.36694     0.35219     0.33744     0.32269     0.30793     0.29318     0.27843     0.26368     0.24893     0.23417     0.21942     0.20467     0.18992     0.17517     0.16041     0.14566     0.13091     0.11616     0.10141     0.08665     0.07190     0.07040     0.07000     0.06960     0.06920     0.05996     0.05107     0.04253     0.03437     0.02662     0.01929     0.01241     0.00600     0.00008    -0.00533    -0.01020    -0.01452    -0.01827    -0.02143    -0.02400    -0.02595    -0.02729    -0.02800    -0.02809    -0.02755    -0.02640    -0.02463    -0.02227    -0.01932    -0.01580    -0.01173    -0.00712    -0.00200     0.00361     0.00969     0.01622     0.02317     0.03053     0.03827     0.04636     0.05480     0.05440     0.05400     0.05360     0.05320     0.05280     0.05240     0.05200     0.05160     0.05120     0.05080     0.05040     0.05000     0.04960     0.04920     0.04880     0.04840     0.04800     0.04760     0.04720     0.04680     0.04640     0.04600     0.04560     0.04520     0.04480     0.04440     0.04400     0.04360     0.04320     0.04280     0.04240     0.04200     0.04160     0.04120     0.04080     0.04040     0.04000     0.03960     0.03920     0.03880     0.03840     0.03800     0.03760     0.03720     0.03680     0.03640     0.03600     0.03560     0.03520     0.03480     0.03440     0.03400     0.03360     0.03320     0.03280     0.03240     0.03200     0.03160     0.03120     0.03080     0.03040     0.03000     0.02667     0.02333     0.02000     0.01667     0.01333     0.01000     0.00667     0.00333     0.00000
0.78000     0.78000     0.78000     0.78000     0.78000     0.78000     0.78000     0.78000     0.78000     0.76553     0.75106     0.73659     0.72212     0.70765     0.69318     0.67871     0.66423     0.64976     0.63529     0.62082     0.60635     0.59188     0.57741     0.56294     0.54847     0.53400     0.51953     0.50506     0.49059     0.47612     0.46165     0.44718     0.43270     0.41823     0.40376     0.38929     0.37482     0.36035     0.34588     0.33141     0.31694     0.30247     0.28800     0.27353     0.25906     0.24459     0.23012     0.21564     0.20117     0.18670     0.17223     0.15776     0.14329     0.12882     0.11435     0.09988     0.08541     0.07094     0.07000     0.06960     0.06920     0.06880     0.06362     0.05532     0.04740     0.03987     0.03276     0.02609     0.01989     0.01416     0.00893     0.00422     0.00005    -0.00357    -0.00663    -0.00911    -0.01100    -0.01230    -0.01300    -0.01310    -0.01260    -0.01151    -0.00983    -0.00757    -0.00475    -0.00138     0.00253     0.00696     0.01189     0.01729     0.02316     0.02947     0.03620     0.04332     0.05082     0.05520     0.05480     0.05440     0.05400     0.05360     0.05320     0.05280     0.05240     0.05200     0.05160     0.05120     0.05080     0.05040     0.05000     0.04960     0.04920     0.04880     0.04840     0.04800     0.04760     0.04720     0.04680     0.04640     0.04600     0.04560     0.04520     0.04480     0.04440     0.04400     0.04360     0.04320     0.04280     0.04240     0.04200     0.04160     0.04120     0.04080     0.04040     0.04000     0.03960     0.03920     0.03880     0.03840     0.03800     0.03760     0.03720     0.03680     0.03640     0.03600     0.03560     0.03520     0.03480     0.03440     0.03400     0.03360     0.03320     0.03280     0.03240     0.03200     0.03160     0.03120     0.03080     0.03040     0.03000     0.02667     0.02333     0.02000     0.01667     0.01333     0.01000     0.00667     0.00333     0.00000
0.78000     0.78000     0.78000     0.78000     0.78000     0.78000     0.78000     0.78000     0.78000     0.76580     0.75160     0.73740     0.72320     0.70900     0.69480     0.68060     0.66640     0.65220     0.63800     0.62380     0.60960     0.59540     0.58120     0.56700     0.55280     0.53860     0.52440     0.51020     0.49600     0.48180     0.46760     0.45340     0.43920     0.42500     0.41080     0.39660     0.38240     0.36820     0.35400     0.33980     0.32560     0.31140     0.29720     0.28300     0.26880     0.25460     0.24040     0.22620     0.21200     0.19780     0.18360     0.16940     0.15520     0.14100     0.12680     0.11260     0.09840     0.08420     0.07000     0.06960     0.06920     0.06880     0.06840     0.06800     0.06054     0.05323     0.04633     0.03987     0.03385     0.02830     0.02324     0.01869     0.01465     0.01115     0.00819     0.00579     0.00395     0.00269     0.00200     0.00189     0.00235     0.00339     0.00499     0.00715     0.00985     0.01309     0.01684     0.02110     0.02585     0.03107     0.03673     0.04283     0.04934     0.05600     0.05560     0.05520     0.05480     0.05440     0.05400     0.05360     0.05320     0.05280     0.05240     0.05200     0.05160     0.05120     0.05080     0.05040     0.05000     0.04960     0.04920     0.04880     0.04840     0.04800     0.04760     0.04720     0.04680     0.04640     0.04600     0.04560     0.04520     0.04480     0.04440     0.04400     0.04360     0.04320     0.04280     0.04240     0.04200     0.04160     0.04120     0.04080     0.04040     0.04000     0.03960     0.03920     0.03880     0.03840     0.03800     0.03760     0.03720     0.03680     0.03640     0.03600     0.03560     0.03520     0.03480     0.03440     0.03400     0.03360     0.03320     0.03280     0.03240     0.03200     0.03160     0.03120     0.03080     0.03040     0.03000     0.02667     0.02333     0.02000     0.01667     0.01333     0.01000     0.00667     0.00333     0.00000
0.78000     0.78000     0.78000     0.78000     0.78000     0.78000     0.78000     0.78000     0.78000     0.76606     0.75212     0.73818     0.72424     0.71030     0.69636     0.68242     0.66848     0.65454     0.64060     0.62666     0.61272     0.59878     0.58484     0.57090     0.55697     0.54303     0.52909     0.51515     0.50121     0.48727     0.47333     0.45939     0.44545     0.43151     0.41757     0.40363     0.38969     0.37575     0.36181     0.34787     0.33393     0.31999     0.30605     0.29211     0.27817     0.26423     0.25029     0.23635     0.22241     0.20847     0.19453     0.18059     0.16665     0.15271     0.13877     0.12484     0.11090     0.09696     0.08302     0.06960     0.06920     0.06880     0.06840     0.06800     0.06760     0.06670     0.06000     0.05372     0.04789     0.04251     0.03760     0.03319     0.02928     0.02589     0.02302     0.02069     0.01891     0.01768     0.01700     0.01688     0.01731     0.01829     0.01982     0.02189     0.02448     0.02759     0.03120     0.03531     0.03989     0.04492     0.05040     0.05630     0.05640     0.05600     0.05560     0.05520     0.05480     0.05440     0.05400     0.05360     0.05320     0.05280     0.05240     0.05200     0.05160     0.05120     0.05080     0.05040     0.05000     0.04960     0.04920     0.04880     0.04840     0.04800     0.04760     0.04720     0.04680     0.04640     0.04600     0.04560     0.04520     0.04480     0.04440     0.04400     0.04360     0.04320     0.04280     0.04240     0.04200     0.04160     0.04120     0.04080     0.04040     0.04000     0.03960     0.03920     0.03880     0.03840     0.03800     0.03760     0.03720     0.03680     0.03640     0.03600     0.03560     0.03520     0.03480     0.03440     0.03400     0.03360     0.03320     0.03280     0.03240     0.03200     0.03160     0.03120     0.03080     0.03040     0.03000     0.02667     0.02333     0.02000     0.01667     0.01333     0.01000     0.00667     0.00333     0.00000
0.78000     0.78000     0.78000     0.78000     0.78000     0.78000     0.78000     0.78000     0.78000     0.76631     0.75262     0.73893     0.72524     0.71156     0.69787     0.68418     0.67049     0.65680     0.64311     0.62942     0.61573     0.60204     0.58835     0.57467     0.56098     0.54729     0.53360     0.51991     0.50622     0.49253     0.47884     0.46515     0.45147     0.43778     0.42409     0.41040     0.39671     0.38302     0.36933     0.35564     0.34195     0.32826     0.31458     0.30089     0.28720     0.27351     0.25982     0.24613     0.23244     0.21875     0.20506     0.19138     0.17769     0.16400     0.15031     0.13662     0.12293     0.10924     0.09555     0.08186     0.06920     0.06880     0.06840     0.06800     0.06760     0.06720     0.06680     0.06640     0.06198     0.05676     0.05201     0.04773     0.04393     0.04064     0.03786     0.03560     0.03387     0.03267     0.03200     0.03187     0.03227     0.03320     0.03466     0.03664     0.03913     0.04213     0.04561     0.04956     0.05398     0.05760     0.05720     0.05680     0.05640     0.05600     0.05560     0.05520     0.05480     0.05440     0.05400     0.05360     0.05320     0.05280     0.05240     0.05200     0.05160     0.05120     0.05080     0.05040     0.05000     0.04960     0.04920     0.04880     0.04840     0.04800     0.04760     0.04720     0.04680     0.04640     0.04600     0.04560     0.04520     0.04480     0.04440     0.04400     0.04360     0.04320     0.04280     0.04240     0.04200     0.04160     0.04120     0.04080     0.04040     0.04000     0.03960     0.03920     0.03880     0.03840     0.03800     0.03760     0.03720     0.03680     0.03640     0.03600     0.03560     0.03520     0.03480     0.03440     0.03400     0.03360     0.03320     0.03280     0.03240     0.03200     0.03160     0.03120     0.03080     0.03040     0.03000     0.02667     0.02333     0.02000     0.01667     0.01333     0.01000     0.00667     0.00333     0.00000
0.78000     0.78000     0.78000     0.78000     0.78000     0.78000     0.78000     0.78000     0.78000     0.76655     0.75311     0.73966     0.72621     0.71276     0.69932     0.68587     0.67242     0.65897     0.64553     0.63208     0.61863     0.60518     0.59174     0.57829     0.56484     0.55140     0.53795     0.52450     0.51105     0.49761     0.48416     0.47071     0.45726     0.44382     0.43037     0.41692     0.40347     0.39003     0.37658     0.36313     0.34969     0.33624     0.32279     0.30934     0.29590     0.28245     0.26900     0.25555     0.24211     0.22866     0.21521     0.20176     0.18832     0.17487     0.16142     0.14798     0.13453     0.12108     0.10763     0.09419     0.08074     0.06880     0.06840     0.06800     0.06760     0.06720     0.06680     0.06640     0.06600     0.06560     0.06520     0.06229     0.05861     0.05542     0.05272     0.05052     0.04883     0.04766     0.04700     0.04686     0.04723     0.04812     0.04952     0.05142     0.05381     0.05669     0.05880     0.05840     0.05800     0.05760     0.05720     0.05680     0.05640     0.05600     0.05560     0.05520     0.05480     0.05440     0.05400     0.05360     0.05320     0.05280     0.05240     0.05200     0.05160     0.05120     0.05080     0.05040     0.05000     0.04960     0.04920     0.04880     0.04840     0.04800     0.04760     0.04720     0.04680     0.04640     0.04600     0.04560     0.04520     0.04480     0.04440     0.04400     0.04360     0.04320     0.04280     0.04240     0.04200     0.04160     0.04120     0.04080     0.04040     0.04000     0.03960     0.03920     0.03880     0.03840     0.03800     0.03760     0.03720     0.03680     0.03640     0.03600     0.03560     0.03520     0.03480     0.03440     0.03400     0.03360     0.03320     0.03280     0.03240     0.03200     0.03160     0.03120     0.03080     0.03040     0.03000     0.02667     0.02333     0.02000     0.01667     0.01333     0.01000     0.00667     0.00333     0.00000
0.78000     0.78000     0.78000     0.78000     0.78000     0.78000     0.78000     0.78000     0.78000     0.76679     0.75357     0.74036     0.72714     0.71393     0.70071     0.68750     0.67429     0.66107     0.64786     0.63464     0.62143     0.60821     0.59500     0.58178     0.56857     0.55536     0.54214     0.52893     0.51571     0.50250     0.48928     0.47607     0.46286     0.44964     0.43643     0.42321     0.41000     0.39678     0.38357     0.37036     0.35714     0.34393     0.33071     0.31750     0.30428     0.29107     0.27785     0.26464     0.25143     0.23821     0.22500     0.21178     0.19857     0.18535     0.17214     0.15893     0.14571     0.13250     0.11928     0.10607     0.09285     0.07964     0.06840     0.06800     0.06760     0.06720     0.06680     0.06640     0.06600     0.06560     0.06520     0.06480     0.06440     0.06400     0.06360     0.06320     0.06280     0.06240     0.06200     0.06160     0.06120     0.06080     0.06040     0.06000     0.05960     0.05920     0.05880     0.05840     0.05800     0.05760     0.05720     0.05680     0.05640     0.05600     0.05560     0.05520     0.05480     0.05440     0.05400     0.05360     0.05320     0.05280     0.05240     0.05200     0.05160     0.05120     0.05080     0.05040     0.05000     0.04960     0.04920     0.04880     0.04840     0.04800     0.04760     0.04720     0.04680     0.04640     0.04600     0.04560     0.04520     0.04480     0.04440     0.04400     0.04360     0.04320     0.04280     0.04240     0.04200     0.04160     0.04120     0.04080     0.04040     0.04000     0.03960     0.03920     0.03880     0.03840     0.03800     0.03760     0.03720     0.03680     0.03640     0.03600     0.03560     0.03520     0.03480     0.03440     0.03400     0.03360     0.03320     0.03280     0.03240     0.03200     0.03160     0.03120     0.03080     0.03040     0.03000     0.02667     0.02333     0.02000     0.01667     0.01333     0.01000     0.00667     0.00333     0.00000
0.78000     0.78000     0.78000     0.78000     0.78000     0.78000     0.78000     0.78000     0.78000     0.76701     0.75402     0.74103     0.72804     0.71505     0.70206     0.68907     0.67608     0.66309     0.65010     0.63712     0.62413     0.61114     0.59815     0.58516     0.57217     0.55918     0.54619     0.53320     0.52021     0.50722     0.49423     0.48124     0.46825     0.45526     0.44227     0.42928     0.41629     0.40330     0.39031     0.37732     0.36434     0.35135     0.33836     0.32537     0.31238     0.29939     0.28640     0.27341     0.26042     0.24743     0.23444     0.22145     0.20846     0.19547     0.18248     0.16949     0.15650     0.14351     0.13052     0.11753     0.10454     0.09155     0.07857     0.06800     0.06760     0.06720     0.06680     0.06640     0.06600     0.06560     0.06520     0.06480     0.06440     0.06400     0.06360     0.06320     0.06280     0.06240     0.06200     0.06160     0.06120     0.06080     0.06040     0.06000     0.05960     0.05920     0.05880     0.05840     0.05800     0.05760     0.05720     0.05680     0.05640     0.05600     0.05560     0.05520     0.05480     0.05440     0.05400     0.05360     0.05320     0.05280     0.05240     0.05200     0.05160     0.05120     0.05080     0.05040     0.05000     0.04960     0.04920     0.04880     0.04840     0.04800     0.04760     0.04720     0.04680     0.04640     0.04600     0.04560     0.04520     0.04480     0.04440     0.04400     0.04360     0.04320     0.04280     0.04240     0.04200     0.04160     0.04120     0.04080     0.04040     0.04000     0.03960     0.03920     0.03880     0.03840     0.03800     0.03760     0.03720     0.03680     0.03640     0.03600     0.03560     0.03520     0.03480     0.03440     0.03400     0.03360     0.03320     0.03280     0.03240     0.03200     0.03160     0.03120     0.03080     0.03040     0.03000     0.02667     0.02333     0.02000     0.01667     0.01333     0.01000     0.00667     0.00333     0.00000
0.78000     0.78000     0.78000     0.78000     0.78000     0.78000     0.78000     0.78000     0.78000     0.76723     0.75446     0.74168     0.72891     0.71614     0.70337     0.69059     0.67782     0.66505     0.65228     0.63950     0.62673     0.61396     0.60119     0.58841     0.57564     0.56287     0.55010     0.53732     0.52455     0.51178     0.49901     0.48623     0.47346     0.46069     0.44792     0.43514     0.42237     0.40960     0.39683     0.38405     0.37128     0.35851     0.34574     0.33296     0.32019     0.30742     0.29465     0.28187     0.26910     0.25633     0.24356     0.23078     0.21801     0.20524     0.19247     0.17969     0.16692     0.15415     0.14138     0.12860     0.11583     0.10306     0.09029     0.07751     0.06760     0.06720     0.06680     0.06640     0.06600     0.06560     0.06520     0.06480     0.06440     0.06400     0.06360     0.06320     0.06280     0.06240     0.06200     0.06160     0.06120     0.06080     0.06040     0.06000     0.05960     0.05920     0.05880     0.05840     0.05800     0.05760     0.05720     0.05680     0.05640     0.05600     0.05560     0.05520     0.05480     0.05440     0.05400     0.05360     0.05320     0.05280     0.05240     0.05200     0.05160     0.05120     0.05080     0.05040     0.05000     0.04960     0.04920     0.04880     0.04840     0.04800     0.04760     0.04720     0.04680     0.04640     0.04600     0.04560     0.04520     0.04480     0.04440     0.04400     0.04360     0.04320     0.04280     0.04240     0.04200     0.04160     0.04120     0.04080     0.04040     0.04000     0.03960     0.03920     0.03880     0.03840     0.03800     0.03760     0.03720     0.03680     0.03640     0.03600     0.03560     0.03520     0.03480     0.03440     0.03400     0.03360     0.03320     0.03280     0.03240     0.03200     0.03160     0.03120     0.03080     0.03040     0.03000     0.02667     0.02333     0.02000     0.01667     0.01333     0.01000     0.00667     0.00333     0.00000
0.78000     0.78000     0.78000     0.78000     0.78000     0.78000     0.78000     0.78000     0.78000     0.76744     0.75487     0.74231     0.72975     0.71719     0.70462     0.69206     0.67950     0.66694     0.65437     0.64181     0.62925     0.61668     0.60412     0.59156     0.57900     0.56643     0.55387     0.54131     0.52874     0.51618     0.50362     0.49106     0.47849     0.46593     0.45337     0.44081     0.42824     0.41568     0.40312     0.39055     0.37799     0.36543     0.35287     0.34030     0.32774     0.31518     0.30261     0.29005     0.27749     0.26493     0.25236     0.23980     0.22724     0.21468     0.20211     0.18955     0.17699     0.16442     0.15186     0.13930     0.12674     0.11417     0.10161     0.08905     0.07648     0.06720     0.06680     0.06640     0.06600     0.06560     0.06520     0.06480     0.06440     0.06400     0.06360     0.06320     0.06280     0.06240     0.06200     0.06160     0.06120     0.06080     0.06040     0.06000     0.05960     0.05920     0.05880     0.05840     0.05800     0.05760     0.05720     0.05680     0.05640     0.05600     0.05560     0.05520     0.05480     0.05440     0.05400     0.05360     0.05320     0.05280     0.05240     0.05200     0.05160     0.05120     0.05080     0.05040     0.05000     0.04960     0.04920     0.04880     0.04840     0.04800     0.04760     0.04720     0.04680     0.04640     0.04600     0.04560     0.04520     0.04480     0.04440     0.04400     0.04360     0.04320     0.04280     0.04240     0.04200     0.04160     0.04120     0.04080     0.04040     0.04000     0.03960     0.03920     0.03880     0.03840     0.03800     0.03760     0.03720     0.03680     0.03640     0.03600     0.03560     0.03520     0.03480     0.03440     0.03400     0.03360     0.03320     0.03280     0.03240     0.03200     0.03160     0.03120     0.03080     0.03040     0.03000     0.02667     0.02333     0.02000     0.01667     0.01333     0.01000     0.00667     0.00333     0.00000
0.78000     0.78000     0.78000     0.78000     0.78000     0.78000     0.78000     0.78000     0.78000     0.76764     0.75528     0.74292     0.73056     0.71820     0.70584     0.69348     0.68112     0.66876     0.65640     0.64404     0.63168     0.61932     0.60696     0.59460     0.58224     0.56988     0.55752     0.54516     0.53280     0.52044     0.50808     0.49572     0.48336     0.47100     0.45864     0.44628     0.43392     0.42156     0.40920     0.39684     0.38448     0.37212     0.35976     0.34740     0.33504     0.32268     0.31032     0.29796     0.28560     0.27324     0.26088     0.24852     0.23616     0.22380     0.21144     0.19908     0.18672     0.17436     0.16200     0.14964     0.13728     0.12492     0.11256     0.10020     0.08784     0.07548     0.06680     0.06640     0.06600     0.06560     0.06520     0.06480     0.06440     0.06400     0.06360     0.06320     0.06280     0.06240     0.06200     0.06160     0.06120     0.06080     0.06040     0.06000     0.05960     0.05920     0.05880     0.05840     0.05800     0.05760     0.05720     0.05680     0.05640     0.05600     0.05560     0.05520     0.05480     0.05440     0.05400     0.05360     0.05320     0.05280     0.05240     0.05200     0.05160     0.05120     0.05080     0.05040     0.05000     0.04960     0.04920     0.04880     0.04840     0.04800     0.04760     0.04720     0.04680     0.04640     0.04600     0.04560     0.04520     0.04480     0.04440     0.04400     0.04360     0.04320     0.04280     0.04240     0.04200     0.04160     0.04120     0.04080     0.04040     0.04000     0.03960     0.03920     0.03880     0.03840     0.03800     0.03760     0.03720     0.03680     0.03640     0.03600     0.03560     0.03520     0.03480     0.03440     0.03400     0.03360     0.03320     0.03280     0.03240     0.03200     0.03160     0.03120     0.03080     0.03040     0.03000     0.02667     0.02333     0.02000     0.01667     0.01333     0.01000     0.00667     0.00333     0.00000
0.78000     0.78000     0.78000     0.78000     0.78000     0.78000     0.78000     0.78000     0.78000     0.76784     0.75567     0.74351     0.73134     0.71918     0.70702     0.69485     0.68269     0.67052     0.65836     0.64620     0.63403     0.62187     0.60970     0.59754     0.58538     0.57321     0.56105     0.54888     0.53672     0.52456     0.51239     0.50023     0.48806     0.47590     0.46374     0.45157     0.43941     0.42724     0.41508     0.40292     0.39075     0.37859     0.36642     0.35426     0.34210     0.32993     0.31777     0.30560     0.29344     0.28128     0.26911     0.25695     0.24478     0.23262     0.22046     0.20829     0.19613     0.18396     0.17180     0.15964     0.14747     0.13531     0.12314     0.11098     0.09882     0.08665     0.07449     0.06640     0.06600     0.06560     0.06520     0.06480     0.06440     0.06400     0.06360     0.06320     0.06280     0.06240     0.06200     0.06160     0.06120     0.06080     0.06040     0.06000     0.05960     0.05920     0.05880     0.05840     0.05800     0.05760     0.05720     0.05680     0.05640     0.05600     0.05560     0.05520     0.05480     0.05440     0.05400     0.05360     0.05320     0.05280     0.05240     0.05200     0.05160     0.05120     0.05080     0.05040     0.05000     0.04960     0.04920     0.04880     0.04840     0.04800     0.04760     0.04720     0.04680     0.04640     0.04600     0.04560     0.04520     0.04480     0.04440     0.04400     0.04360     0.04320     0.04280     0.04240     0.04200     0.04160     0.04120     0.04080     0.04040     0.04000     0.03960     0.03920     0.03880     0.03840     0.03800     0.03760     0.03720     0.03680     0.03640     0.03600     0.03560     0.03520     0.03480     0.03440     0.03400     0.03360     0.03320     0.03280     0.03240     0.03200     0.03160     0.03120     0.03080     0.03040     0.03000     0.02667     0.02333     0.02000     0.01667     0.01333     0.01000     0.00667     0.00333     0.00000
0.78000     0.78000     0.78000     0.78000     0.78000     0.78000     0.78000     0.78000     0.78000     0.76803     0.75605     0.74408     0.73210     0.72013     0.70815     0.69618     0.68421     0.67223     0.66026     0.64828     0.63631     0.62433     0.61236     0.60039     0.58841     0.57644     0.56446     0.55249     0.54052     0.52854     0.51657     0.50459     0.49262     0.48064     0.46867     0.45670     0.44472     0.43275     0.42077     0.40880     0.39682     0.38485     0.37288     0.36090     0.34893     0.33695     0.32498     0.31300     0.30103     0.28906     0.27708     0.26511     0.25313     0.24116     0.22918     0.21721     0.20524     0.19326     0.18129     0.16931     0.15734     0.14536     0.13339     0.12142     0.10944     0.09747     0.08549     0.07352     0.06600     0.06560     0.06520     0.06480     0.06440     0.06400     0.06360     0.06320     0.06280     0.06240     0.06200     0.06160     0.06120     0.06080     0.06040     0.06000     0.05960     0.05920     0.05880     0.05840     0.05800     0.05760     0.05720     0.05680     0.05640     0.05600     0.05560     0.05520     0.05480     0.05440     0.05400     0.05360     0.05320     0.05280     0.05240     0.05200     0.05160     0.05120     0.05080     0.05040     0.05000     0.04960     0.04920     0.04880     0.04840     0.04800     0.04760     0.04720     0.04680     0.04640     0.04600     0.04560     0.04520     0.04480     0.04440     0.04400     0.04360     0.04320     0.04280     0.04240     0.04200     0.04160     0.04120     0.04080     0.04040     0.04000     0.03960     0.03920     0.03880     0.03840     0.03800     0.03760     0.03720     0.03680     0.03640     0.03600     0.03560     0.03520     0.03480     0.03440     0.03400     0.03360     0.03320     0.03280     0.03240     0.03200     0.03160     0.03120     0.03080     0.03040     0.03000     0.02667     0.02333     0.02000     0.01667     0.01333     0.01000     0.00667     0.00333     0.00000
0.78000     0.78000     0.78000     0.78000     0.78000     0.78000     0.78000     0.78000     0.78000     0.76821     0.75642     0.74463     0.73284     0.72105     0.70926     0.69747     0.68568     0.67389     0.66209     0.65030     0.63851     0.62672     0.61493     0.60314     0.59135     0.57956     0.56777     0.55598     0.54419     0.53240     0.52061     0.50882     0.49703     0.48524     0.47345     0.46166     0.44987     0.43807     0.42628     0.41449     0.40270     0.39091     0.37912     0.36733     0.35554     0.34375     0.33196     0.32017     0.30838     0.29659     0.28480     0.27301     0.26122     0.24943     0.23764     0.22585     0.21405     0.20226     0.19047     0.17868     0.16689     0.15510     0.14331     0.13152     0.11973     0.10794     0.09615     0.08436     0.07257     0.06560     0.06520     0.06480     0.06440     0.06400     0.06360     0.06320     0.06280     0.06240     0.06200     0.06160     0.06120     0.06080     0.06040     0.06000     0.05960     0.05920     0.05880     0.05840     0.05800     0.05760     0.05720     0.05680     0.05640     0.05600     0.05560     0.05520     0.05480     0.05440     0.05400     0.05360     0.05320     0.05280     0.05240     0.05200     0.05160     0.05120     0.05080     0.05040     0.05000     0.04960     0.04920     0.04880     0.04840     0.04800     0.04760     0.04720     0.04680     0.04640     0.04600     0.04560     0.04520     0.04480     0.04440     0.04400     0.04360     0.04320     0.04280     0.04240     0.04200     0.04160     0.04120     0.04080     0.04040     0.04000     0.03960     0.03920     0.03880     0.03840     0.03800     0.03760     0.03720     0.03680     0.03640     0.03600     0.03560     0.03520     0.03480     0.03440     0.03400     0.03360     0.03320     0.03280     0.03240     0.03200     0.03160     0.03120     0.03080     0.03040     0.03000     0.02667     0.02333     0.02000     0.01667     0.01333     0.01000     0.00667     0.00333     0.00000
