7.8000000e-01   7.8000000e-01   7.8000000e-01   7.8000000e-01   7.8000000e-01   7.8000000e-01   7.8000000e-01   7.8000000e-01   7.8000000e-01   7.8000000e-01   7.8000000e-01   7.8000000e-01   7.8000000e-01   7.8000000e-01   7.8000000e-01   7.8000000e-01   7.8000000e-01   7.8000000e-01   7.8000000e-01   7.8000000e-01   7.8000000e-01   7.8000000e-01   7.8000000e-01   7.8000000e-01   7.8000000e-01   7.8000000e-01   7.8000000e-01   7.8000000e-01   7.8000000e-01   7.8000000e-01   7.8000000e-01   7.8000000e-01   7.8000000e-01   7.8000000e-01   7.8000000e-01   7.8000000e-01   7.8000000e-01   7.8000000e-01   7.8000000e-01   7.8000000e-01   7.8000000e-01   7.8000000e-01   7.8000000e-01   7.8000000e-01   7.8000000e-01   7.8000000e-01   7.8000000e-01   7.8000000e-01   7.8000000e-01   7.8000000e-01   7.8000000e-01   7.6763994e-01   7.5527989e-01   7.4291983e-01   7.3055978e-01   7.1819972e-01   7.0583966e-01   6.9347961e-01   6.8111955e-01   6.6875950e-01   6.5639944e-01   6.4403938e-01   6.3167933e-01   6.1931927e-01   6.0695922e-01   5.9459916e-01   5.8223910e-01   5.6987905e-01   5.5751899e-01   5.4515894e-01   5.3279888e-01   5.2043882e-01   5.0807877e-01   4.9571871e-01   4.8335866e-01   4.7099860e-01   4.5863854e-01   4.4627849e-01   4.3391843e-01   4.2155838e-01   4.0919832e-01   3.9683826e-01   3.8447821e-01   3.7211815e-01   3.5975809e-01   3.4739804e-01   3.3503798e-01   3.2267793e-01   3.1031787e-01   2.9795781e-01   2.8559776e-01   2.7323770e-01   2.6087765e-01   2.4851759e-01   2.3615753e-01   2.2379748e-01   2.1143742e-01   1.9907737e-01   1.8671731e-01   1.7435725e-01   1.6199720e-01   1.4963714e-01   1.3727709e-01   1.2491703e-01   1.1255697e-01   1.0019692e-01   8.7836862e-02   7.5476806e-02   6.6799896e-02   6.6399897e-02   6.5999898e-02   6.5599899e-02   6.5199900e-02   6.4799901e-02   6.4399903e-02   6.3999904e-02   6.3599905e-02   6.3199906e-02   6.2799907e-02   6.2399908e-02   6.1999909e-02   6.1599910e-02   6.1199912e-02   6.0799913e-02   6.0399914e-02   5.9999915e-02   5.9599916e-02   5.9199917e-02   5.8799918e-02   5.8399920e-02   5.7999921e-02   5.7599922e-02   5.7199923e-02   5.6799924e-02   5.6399925e-02   5.5999926e-02   5.5599927e-02   5.5199929e-02   5.4799930e-02   5.4399931e-02   5.3999932e-02   5.3599933e-02   5.3199934e-02   5.2799935e-02   5.2399937e-02   5.1999938e-02   5.1599939e-02   5.1199940e-02   5.0799941e-02   5.0399942e-02   4.9999943e-02   4.9599944e-02   4.9199946e-02   4.8799947e-02   4.8399948e-02   4.7999949e-02   4.7599950e-02   4.7199951e-02   4.6799952e-02   4.6399954e-02   4.5999955e-02   4.5599956e-02   4.5199957e-02   4.4799958e-02   4.4399959e-02   4.3999960e-02   4.3599961e-02   4.3199963e-02   4.2799964e-02   4.2399965e-02   4.1999966e-02   4.1599967e-02   4.1199968e-02   4.0799969e-02   4.0399971e-02   3.9999972e-02   3.9599973e-02   3.9199974e-02   3.8799975e-02   3.8399976e-02   3.7999977e-02   3.7599978e-02   3.7199980e-02   3.6799981e-02   3.6399982e-02   3.5999983e-02
7.8000000e-01   7.8000000e-01   7.8000000e-01   7.8000000e-01   7.8000000e-01   7.8000000e-01   7.8000000e-01   7.8000000e-01   7.8000000e-01   7.8000000e-01   7.8000000e-01   7.8000000e-01   7.8000000e-01   7.8000000e-01   7.8000000e-01   7.8000000e-01   7.8000000e-01   7.8000000e-01   7.8000000e-01   7.8000000e-01   7.8000000e-01   7.8000000e-01   7.8000000e-01   7.8000000e-01   7.8000000e-01   7.8000000e-01   7.8000000e-01   7.8000000e-01   7.8000000e-01   7.8000000e-01   7.8000000e-01   7.8000000e-01   7.8000000e-01   7.8000000e-01   7.8000000e-01   7.8000000e-01   7.8000000e-01   7.8000000e-01   7.8000000e-01   7.8000000e-01   7.8000000e-01   7.8000000e-01   7.8000000e-01   7.8000000e-01   7.8000000e-01   7.8000000e-01   7.8000000e-01   7.8000000e-01   7.8000000e-01   7.8000000e-01   7.8000000e-01   7.6783601e-01   7.5567202e-01   7.4350803e-01   7.3134404e-01   7.1918005e-01   7.0701606e-01   6.9485207e-01   6.8268808e-01   6.7052409e-01   6.5836010e-01   6.4619611e-01   6.3403212e-01   6.2186813e-01   6.0970414e-01   5.9754015e-01   5.8537616e-01   5.7321217e-01   5.6104818e-01   5.4888419e-01   5.3672019e-01   5.2455620e-01   5.1239221e-01   5.0022822e-01   4.8806423e-01   4.7590024e-01   4.6373625e-01   4.5157226e-01   4.3940827e-01   4.2724428e-01   4.1508029e-01   4.0291630e-01   3.9075231e-01   3.7858832e-01   3.6642433e-01   3.5426034e-01   3.4209635e-01   3.2993236e-01   3.1776837e-01   3.0560438e-01   2.9344039e-01   2.8127640e-01   2.6911241e-01   2.5694842e-01   2.4478443e-01   2.3262044e-01   2.2045645e-01   2.0829246e-01   1.9612847e-01   1.8396448e-01   1.7180049e-01   1.5963650e-01   1.4747251e-01   1.3530852e-01   1.2314453e-01   1.1098054e-01   9.8816545e-02   8.6652555e-02   7.4488565e-02   6.6399893e-02   6.5999894e-02   6.5599895e-02   6.5199896e-02   6.4799897e-02   6.4399899e-02   6.3999900e-02   6.3599901e-02   6.3199902e-02   6.2799903e-02   6.2399905e-02   6.1999906e-02   6.1599907e-02   6.1199908e-02   6.0799909e-02   6.0399910e-02   5.9999912e-02   5.9599913e-02   5.9199914e-02   5.8799915e-02   5.8399916e-02   5.7999917e-02   5.7599919e-02   5.7199920e-02   5.6799921e-02   5.6399922e-02   5.5999923e-02   5.5599925e-02   5.5199926e-02   5.4799927e-02   5.4399928e-02   5.3999929e-02   5.3599930e-02   5.3199932e-02   5.2799933e-02   5.2399934e-02   5.1999935e-02   5.1599936e-02   5.1199938e-02   5.0799939e-02   5.0399940e-02   4.9999941e-02   4.9599942e-02   4.9199943e-02   4.8799945e-02   4.8399946e-02   4.7999947e-02   4.7599948e-02   4.7199949e-02   4.6799950e-02   4.6399952e-02   4.5999953e-02   4.5599954e-02   4.5199955e-02   4.4799956e-02   4.4399958e-02   4.3999959e-02   4.3599960e-02   4.3199961e-02   4.2799962e-02   4.2399963e-02   4.1999965e-02   4.1599966e-02   4.1199967e-02   4.0799968e-02   4.0399969e-02   3.9999971e-02   3.9599972e-02   3.9199973e-02   3.8799974e-02   3.8399975e-02   3.7999976e-02   3.7599978e-02   3.7199979e-02   3.6799980e-02   3.6399981e-02   3.5999982e-02
7.8000000e-01   7.8000000e-01   7.8000000e-01   7.8000000e-01   7.8000000e-01   7.8000000e-01   7.8000000e-01   7.8000000e-01   7.8000000e-01   7.8000000e-01   7.8000000e-01   7.8000000e-01   7.8000000e-01   7.8000000e-01   7.8000000e-01   7.8000000e-01   7.8000000e-01   7.8000000e-01   7.8000000e-01   7.8000000e-01   7.8000000e-01   7.8000000e-01   7.8000000e-01   7.8000000e-01   7.8000000e-01   7.8000000e-01   7.8000000e-01   7.8000000e-01   7.8000000e-01   7.8000000e-01   7.8000000e-01   7.8000000e-01   7.8000000e-01   7.8000000e-01   7.8000000e-01   7.8000000e-01   7.8000000e-01   7.8000000e-01   7.8000000e-01   7.8000000e-01   7.8000000e-01   7.8000000e-01   7.8000000e-01   7.8000000e-01   7.8000000e-01   7.8000000e-01   7.8000000e-01   7.8000000e-01   7.8000000e-01   7.8000000e-01   7.8000000e-01   7.6802575e-01   7.5605150e-01   7.4407725e-01   7.3210300e-01   7.2012875e-01   7.0815450e-01   6.9618026e-01   6.8420601e-01   6.7223176e-01   6.6025751e-01   6.4828326e-01   6.3630901e-01   6.2433476e-01   6.1236051e-01   6.0038626e-01   5.8841201e-01   5.7643776e-01   5.6446351e-01   5.5248927e-01   5.4051502e-01   5.2854077e-01   5.1656652e-01   5.0459227e-01   4.9261802e-01   4.8064377e-01   4.6866952e-01   4.5669527e-01   4.4472102e-01   4.3274677e-01   4.2077252e-01   4.0879828e-01   3.9682403e-01   3.8484978e-01   3.7287553e-01   3.6090128e-01   3.4892703e-01   3.3695278e-01   3.2497853e-01   3.1300428e-01   3.0103003e-01   2.8905578e-01   2.7708153e-01   2.6510729e-01   2.5313304e-01   2.4115879e-01   2.2918454e-01   2.1721029e-01   2.0523604e-01   1.9326179e-01   1.8128754e-01   1.6931329e-01   1.5733904e-01   1.4536479e-01   1.3339054e-01   1.2141630e-01   1.0944205e-01   9.7467797e-02   8.5493548e-02   7.3519299e-02   6.5999890e-02   6.5599891e-02   6.5199892e-02   6.4799893e-02   6.4399895e-02   6.3999896e-02   6.3599897e-02   6.3199898e-02   6.2799900e-02   6.2399901e-02   6.1999902e-02   6.1599903e-02   6.1199904e-02   6.0799906e-02   6.0399907e-02   5.9999908e-02   5.9599909e-02   5.9199911e-02   5.8799912e-02   5.8399913e-02   5.7999914e-02   5.7599915e-02   5.7199917e-02   5.6799918e-02   5.6399919e-02   5.5999920e-02   5.5599922e-02   5.5199923e-02   5.4799924e-02   5.4399925e-02   5.3999926e-02   5.3599928e-02   5.3199929e-02   5.2799930e-02   5.2399931e-02   5.1999933e-02   5.1599934e-02   5.1199935e-02   5.0799936e-02   5.0399937e-02   4.9999939e-02   4.9599940e-02   4.9199941e-02   4.8799942e-02   4.8399944e-02   4.7999945e-02   4.7599946e-02   4.7199947e-02   4.6799949e-02   4.6399950e-02   4.5999951e-02   4.5599952e-02   4.5199953e-02   4.4799955e-02   4.4399956e-02   4.3999957e-02   4.3599958e-02   4.3199960e-02   4.2799961e-02   4.2399962e-02   4.1999963e-02   4.1599964e-02   4.1199966e-02   4.0799967e-02   4.0399968e-02   3.9999969e-02   3.9599971e-02   3.9199972e-02   3.8799973e-02   3.8399974e-02   3.7999975e-02   3.7599977e-02   3.7199978e-02   3.6799979e-02   3.6399980e-02   3.5999982e-02
7.8000000e-01   7.8000000e-01   7.8000000e-01   7.8000000e-01   7.8000000e-01   7.8000000e-01   7.8000000e-01   7.8000000e-01   7.8000000e-01   7.8000000e-01   7.8000000e-01   7.8000000e-01   7.8000000e-01   7.8000000e-01   7.8000000e-01   7.8000000e-01   7.8000000e-01   7.8000000e-01   7.8000000e-01   7.8000000e-01   7.8000000e-01   7.8000000e-01   7.8000000e-01   7.8000000e-01   7.8000000e-01   7.8000000e-01   7.8000000e-01   7.8000000e-01   7.8000000e-01   7.8000000e-01   7.8000000e-01   7.8000000e-01   7.8000000e-01   7.8000000e-01   7.8000000e-01   7.8000000e-01   7.8000000e-01   7.8000000e-01   7.8000000e-01   7.8000000e-01   7.8000000e-01   7.8000000e-01   7.8000000e-01   7.8000000e-01   7.8000000e-01   7.8000000e-01   7.8000000e-01   7.8000000e-01   7.8000000e-01   7.8000000e-01   7.8000000e-01   7.6820947e-01   7.5641894e-01   7.4462841e-01   7.3283787e-01   7.2104734e-01   7.0925681e-01   6.9746628e-01   6.8567575e-01   6.7388522e-01   6.6209468e-01   6.5030415e-01   6.3851362e-01   6.2672309e-01   6.1493256e-01   6.0314203e-01   5.9135149e-01   5.7956096e-01   5.6777043e-01   5.5597990e-01   5.4418937e-01   5.3239884e-01   5.2060831e-01   5.0881777e-01   4.9702724e-01   4.8523671e-01   4.7344618e-01   4.6165565e-01   4.4986512e-01   4.3807458e-01   4.2628405e-01   4.1449352e-01   4.0270299e-01   3.9091246e-01   3.7912193e-01   3.6733139e-01   3.5554086e-01   3.4375033e-01   3.3195980e-01   3.2016927e-01   3.0837874e-01   2.9658820e-01   2.8479767e-01   2.7300714e-01   2.6121661e-01   2.4942608e-01   2.3763555e-01   2.2584502e-01   2.1405448e-01   2.0226395e-01   1.9047342e-01   1.7868289e-01   1.6689236e-01   1.5510183e-01   1.4331129e-01   1.3152076e-01   1.1973023e-01   1.0793970e-01   9.6149168e-02   8.4358636e-02   7.2568105e-02   6.5599887e-02   6.5199888e-02   6.4799889e-02   6.4399891e-02   6.3999892e-02   6.3599893e-02   6.3199894e-02   6.2799896e-02   6.2399897e-02   6.1999898e-02   6.1599899e-02   6.1199901e-02   6.0799902e-02   6.0399903e-02   5.9999905e-02   5.9599906e-02   5.9199907e-02   5.8799908e-02   5.8399910e-02   5.7999911e-02   5.7599912e-02   5.7199913e-02   5.6799915e-02   5.6399916e-02   5.5999917e-02   5.5599919e-02   5.5199920e-02   5.4799921e-02   5.4399922e-02   5.3999924e-02   5.3599925e-02   5.3199926e-02   5.2799927e-02   5.2399929e-02   5.1999930e-02   5.1599931e-02   5.1199933e-02   5.0799934e-02   5.0399935e-02   4.9999936e-02   4.9599938e-02   4.9199939e-02   4.8799940e-02   4.8399941e-02   4.7999943e-02   4.7599944e-02   4.7199945e-02   4.6799947e-02   4.6399948e-02   4.5999949e-02   4.5599950e-02   4.5199952e-02   4.4799953e-02   4.4399954e-02   4.3999955e-02   4.3599957e-02   4.3199958e-02   4.2799959e-02   4.2399961e-02   4.1999962e-02   4.1599963e-02   4.1199964e-02   4.0799966e-02   4.0399967e-02   3.9999968e-02   3.9599969e-02   3.9199971e-02   3.8799972e-02   3.8399973e-02   3.7999975e-02   3.7599976e-02   3.7199977e-02   3.6799978e-02   3.6399980e-02   3.5999981e-02
7.8000000e-01   7.8000000e-01   7.8000000e-01   7.8000000e-01   7.8000000e-01   7.8000000e-01   7.8000000e-01   7.8000000e-01   7.8000000e-01   7.8000000e-01   7.8000000e-01   7.8000000e-01   7.8000000e-01   7.8000000e-01   7.8000000e-01   7.8000000e-01   7.8000000e-01   7.8000000e-01   7.8000000e-01   7.8000000e-01   7.8000000e-01   7.8000000e-01   7.8000000e-01   7.8000000e-01   7.8000000e-01   7.8000000e-01   7.8000000e-01   7.8000000e-01   7.8000000e-01   7.8000000e-01   7.8000000e-01   7.8000000e-01   7.8000000e-01   7.8000000e-01   7.8000000e-01   7.8000000e-01   7.8000000e-01   7.8000000e-01   7.8000000e-01   7.8000000e-01   7.8000000e-01   7.8000000e-01   7.8000000e-01   7.8000000e-01   7.8000000e-01   7.8000000e-01   7.8000000e-01   7.8000000e-01   7.8000000e-01   7.8000000e-01   7.8000000e-01   7.6838744e-01   7.5677489e-01   7.4516233e-01   7.3354978e-01   7.2193722e-01   7.1032467e-01   6.9871211e-01   6.8709956e-01   6.7548700e-01   6.6387445e-01   6.5226189e-01   6.4064934e-01   6.2903678e-01   6.1742423e-01   6.0581167e-01   5.9419912e-01   5.8258656e-01   5.7097401e-01   5.5936145e-01   5.4774890e-01   5.3613634e-01   5.2452379e-01   5.1291123e-01   5.0129868e-01   4.8968612e-01   4.7807357e-01   4.6646101e-01   4.5484846e-01   4.4323590e-01   4.3162335e-01   4.2001079e-01   4.0839823e-01   3.9678568e-01   3.8517312e-01   3.7356057e-01   3.6194801e-01   3.5033546e-01   3.3872290e-01   3.2711035e-01   3.1549779e-01   3.0388524e-01   2.9227268e-01   2.8066013e-01   2.6904757e-01   2.5743502e-01   2.4582246e-01   2.3420991e-01   2.2259735e-01   2.1098480e-01   1.9937224e-01   1.8775969e-01   1.7614713e-01   1.6453458e-01   1.5292202e-01   1.4130947e-01   1.2969691e-01   1.1808436e-01   1.0647180e-01   9.4859246e-02   8.3246690e-02   7.1634135e-02   6.5199884e-02   6.4799885e-02   6.4399886e-02   6.3999888e-02   6.3599889e-02   6.3199890e-02   6.2799892e-02   6.2399893e-02   6.1999894e-02   6.1599896e-02   6.1199897e-02   6.0799898e-02   6.0399900e-02   5.9999901e-02   5.9599902e-02   5.9199904e-02   5.8799905e-02   5.8399906e-02   5.7999907e-02   5.7599909e-02   5.7199910e-02   5.6799911e-02   5.6399913e-02   5.5999914e-02   5.5599915e-02   5.5199917e-02   5.4799918e-02   5.4399919e-02   5.3999921e-02   5.3599922e-02   5.3199923e-02   5.2799925e-02   5.2399926e-02   5.1999927e-02   5.1599929e-02   5.1199930e-02   5.0799931e-02   5.0399933e-02   4.9999934e-02   4.9599935e-02   4.9199937e-02   4.8799938e-02   4.8399939e-02   4.7999941e-02   4.7599942e-02   4.7199943e-02   4.6799944e-02   4.6399946e-02   4.5999947e-02   4.5599948e-02   4.5199950e-02   4.4799951e-02   4.4399952e-02   4.3999954e-02   4.3599955e-02   4.3199956e-02   4.2799958e-02   4.2399959e-02   4.1999960e-02   4.1599962e-02   4.1199963e-02   4.0799964e-02   4.0399966e-02   3.9999967e-02   3.9599968e-02   3.9199970e-02   3.8799971e-02   3.8399972e-02   3.7999974e-02   3.7599975e-02   3.7199976e-02   3.6799978e-02   3.6399979e-02   3.5999980e-02
7.8000000e-01   7.8000000e-01   7.8000000e-01   7.8000000e-01   7.8000000e-01   7.8000000e-01   7.8000000e-01   7.8000000e-01   7.8000000e-01   7.8000000e-01   7.8000000e-01   7.8000000e-01   7.8000000e-01   7.8000000e-01   7.8000000e-01   7.8000000e-01   7.8000000e-01   7.8000000e-01   7.8000000e-01   7.8000000e-01   7.8000000e-01   7.8000000e-01   7.8000000e-01   7.8000000e-01   7.8000000e-01   7.8000000e-01   7.8000000e-01   7.8000000e-01   7.8000000e-01   7.8000000e-01   7.8000000e-01   7.8000000e-01   7.8000000e-01   7.8000000e-01   7.8000000e-01   7.8000000e-01   7.8000000e-01   7.8000000e-01   7.8000000e-01   7.8000000e-01   7.8000000e-01   7.8000000e-01   7.8000000e-01   7.8000000e-01   7.8000000e-01   7.8000000e-01   7.8000000e-01   7.8000000e-01   7.8000000e-01   7.8000000e-01   7.8000000e-01   7.6855995e-01   7.5711989e-01   7.4567984e-01   7.3423978e-01   7.2279973e-01   7.1135967e-01   6.9991962e-01   6.8847956e-01   6.7703951e-01   6.6559945e-01   6.5415940e-01   6.4271934e-01   6.3127929e-01   6.1983923e-01   6.0839918e-01   5.9695912e-01   5.8551907e-01   5.7407901e-01   5.6263896e-01   5.5119890e-01   5.3975885e-01   5.2831879e-01   5.1687874e-01   5.0543868e-01   4.9399863e-01   4.8255857e-01   4.7111852e-01   4.5967846e-01   4.4823841e-01   4.3679835e-01   4.2535830e-01   4.1391824e-01   4.0247819e-01   3.9103813e-01   3.7959808e-01   3.6815802e-01   3.5671797e-01   3.4527791e-01   3.3383786e-01   3.2239780e-01   3.1095775e-01   2.9951769e-01   2.8807764e-01   2.7663758e-01   2.6519753e-01   2.5375747e-01   2.4231742e-01   2.3087736e-01   2.1943731e-01   2.0799725e-01   1.9655720e-01   1.8511714e-01   1.7367709e-01   1.6223703e-01   1.5079698e-01   1.3935692e-01   1.2791687e-01   1.1647682e-01   1.0503676e-01   9.3596705e-02   8.2156650e-02   7.0716595e-02   6.4799881e-02   6.4399882e-02   6.3999883e-02   6.3599885e-02   6.3199886e-02   6.2799888e-02   6.2399889e-02   6.1999890e-02   6.1599892e-02   6.1199893e-02   6.0799894e-02   6.0399896e-02   5.9999897e-02   5.9599899e-02   5.9199900e-02   5.8799901e-02   5.8399903e-02   5.7999904e-02   5.7599905e-02   5.7199907e-02   5.6799908e-02   5.6399909e-02   5.5999911e-02   5.5599912e-02   5.5199914e-02   5.4799915e-02   5.4399916e-02   5.3999918e-02   5.3599919e-02   5.3199920e-02   5.2799922e-02   5.2399923e-02   5.1999925e-02   5.1599926e-02   5.1199927e-02   5.0799929e-02   5.0399930e-02   4.9999931e-02   4.9599933e-02   4.9199934e-02   4.8799936e-02   4.8399937e-02   4.7999938e-02   4.7599940e-02   4.7199941e-02   4.6799942e-02   4.6399944e-02   4.5999945e-02   4.5599947e-02   4.5199948e-02   4.4799949e-02   4.4399951e-02   4.3999952e-02   4.3599953e-02   4.3199955e-02   4.2799956e-02   4.2399957e-02   4.1999959e-02   4.1599960e-02   4.1199962e-02   4.0799963e-02   4.0399964e-02   3.9999966e-02   3.9599967e-02   3.9199968e-02   3.8799970e-02   3.8399971e-02   3.7999973e-02   3.7599974e-02   3.7199975e-02   3.6799977e-02   3.6399978e-02   3.5999979e-02
7.8000000e-01   7.8000000e-01   7.8000000e-01   7.8000000e-01   7.8000000e-01   7.8000000e-01   7.8000000e-01   7.8000000e-01   7.8000000e-01   7.8000000e-01   7.8000000e-01   7.8000000e-01   7.8000000e-01   7.8000000e-01   7.8000000e-01   7.8000000e-01   7.8000000e-01   7.8000000e-01   7.8000000e-01   7.8000000e-01   7.8000000e-01   7.8000000e-01   7.8000000e-01   7.8000000e-01   7.8000000e-01   7.8000000e-01   7.8000000e-01   7.8000000e-01   7.8000000e-01   7.8000000e-01   7.8000000e-01   7.8000000e-01   7.8000000e-01   7.8000000e-01   7.8000000e-01   7.8000000e-01   7.8000000e-01   7.8000000e-01   7.8000000e-01   7.8000000e-01   7.8000000e-01   7.8000000e-01   7.8000000e-01   7.8000000e-01   7.8000000e-01   7.8000000e-01   7.8000000e-01   7.8000000e-01   7.8000000e-01   7.8000000e-01   7.8000000e-01   7.6872722e-01   7.5745444e-01   7.4618165e-01   7.3490887e-01   7.2363609e-01   7.1236331e-01   7.0109053e-01   6.8981774e-01   6.7854496e-01   6.6727218e-01   6.5599940e-01   6.4472662e-01   6.3345383e-01   6.2218105e-01   6.1090827e-01   5.9963549e-01   5.8836271e-01   5.7708993e-01   5.6581714e-01   5.5454436e-01   5.4327158e-01   5.3199880e-01   5.2072602e-01   5.0945323e-01   4.9818045e-01   4.8690767e-01   4.7563489e-01   4.6436211e-01   4.5308932e-01   4.4181654e-01   4.3054376e-01   4.1927098e-01   4.0799820e-01   3.9672541e-01   3.8545263e-01   3.7417985e-01   3.6290707e-01   3.5163429e-01   3.4036150e-01   3.2908872e-01   3.1781594e-01   3.0654316e-01   2.9527038e-01   2.8399760e-01   2.7272481e-01   2.6145203e-01   2.5017925e-01   2.3890647e-01   2.2763369e-01   2.1636090e-01   2.0508812e-01   1.9381534e-01   1.8254256e-01   1.7126978e-01   1.5999699e-01   1.4872421e-01   1.3745143e-01   1.2617865e-01   1.1490587e-01   1.0363308e-01   9.2360302e-02   8.1087520e-02   6.9814738e-02   6.4399878e-02   6.3999879e-02   6.3599881e-02   6.3199882e-02   6.2799883e-02   6.2399885e-02   6.1999886e-02   6.1599888e-02   6.1199889e-02   6.0799890e-02   6.0399892e-02   5.9999893e-02   5.9599895e-02   5.9199896e-02   5.8799898e-02   5.8399899e-02   5.7999900e-02   5.7599902e-02   5.7199903e-02   5.6799905e-02   5.6399906e-02   5.5999908e-02   5.5599909e-02   5.5199910e-02   5.4799912e-02   5.4399913e-02   5.3999915e-02   5.3599916e-02   5.3199918e-02   5.2799919e-02   5.2399920e-02   5.1999922e-02   5.1599923e-02   5.1199925e-02   5.0799926e-02   5.0399927e-02   4.9999929e-02   4.9599930e-02   4.9199932e-02   4.8799933e-02   4.8399935e-02   4.7999936e-02   4.7599937e-02   4.7199939e-02   4.6799940e-02   4.6399942e-02   4.5999943e-02   4.5599945e-02   4.5199946e-02   4.4799947e-02   4.4399949e-02   4.3999950e-02   4.3599952e-02   4.3199953e-02   4.2799954e-02   4.2399956e-02   4.1999957e-02   4.1599959e-02   4.1199960e-02   4.0799962e-02   4.0399963e-02   3.9999964e-02   3.9599966e-02   3.9199967e-02   3.8799969e-02   3.8399970e-02   3.7999972e-02   3.7599973e-02   3.7199974e-02   3.6799976e-02   3.6399977e-02   3.5999979e-02
7.8000000e-01   7.8000000e-01   7.8000000e-01   7.8000000e-01   7.8000000e-01   7.8000000e-01   7.8000000e-01   7.8000000e-01   7.8000000e-01   7.8000000e-01   7.8000000e-01   7.8000000e-01   7.8000000e-01   7.8000000e-01   7.8000000e-01   7.8000000e-01   7.8000000e-01   7.8000000e-01   7.8000000e-01   7.8000000e-01   7.8000000e-01   7.8000000e-01   7.8000000e-01   7.8000000e-01   7.8000000e-01   7.8000000e-01   7.8000000e-01   7.8000000e-01   7.8000000e-01   7.8000000e-01   7.8000000e-01   7.8000000e-01   7.8000000e-01   7.8000000e-01   7.8000000e-01   7.8000000e-01   7.8000000e-01   7.8000000e-01   7.8000000e-01   7.8000000e-01   7.8000000e-01   7.8000000e-01   7.8000000e-01   7.8000000e-01   7.8000000e-01   7.8000000e-01   7.8000000e-01   7.8000000e-01   7.8000000e-01   7.8000000e-01   7.8000000e-01   7.6888950e-01   7.5777900e-01   7.4666849e-01   7.3555799e-01   7.2444749e-01   7.1333699e-01   7.0222648e-01   6.9111598e-01   6.8000548e-01   6.6889498e-01   6.5778448e-01   6.4667397e-01   6.3556347e-01   6.2445297e-01   6.1334247e-01   6.0223197e-01   5.9112146e-01   5.8001096e-01   5.6890046e-01   5.5778996e-01   5.4667945e-01   5.3556895e-01   5.2445845e-01   5.1334795e-01   5.0223745e-01   4.9112694e-01   4.8001644e-01   4.6890594e-01   4.5779544e-01   4.4668494e-01   4.3557443e-01   4.2446393e-01   4.1335343e-01   4.0224293e-01   3.9113242e-01   3.8002192e-01   3.6891142e-01   3.5780092e-01   3.4669042e-01   3.3557991e-01   3.2446941e-01   3.1335891e-01   3.0224841e-01   2.9113791e-01   2.8002740e-01   2.6891690e-01   2.5780640e-01   2.4669590e-01   2.3558539e-01   2.2447489e-01   2.1336439e-01   2.0225389e-01   1.9114339e-01   1.8003288e-01   1.6892238e-01   1.5781188e-01   1.4670138e-01   1.3559088e-01   1.2448037e-01   1.1336987e-01   1.0225937e-01   9.1148867e-02   8.0038364e-02   6.8927862e-02   6.3999875e-02   6.3599876e-02   6.3199878e-02   6.2799879e-02   6.2399881e-02   6.1999882e-02   6.1599884e-02   6.1199885e-02   6.0799886e-02   6.0399888e-02   5.9999889e-02   5.9599891e-02   5.9199892e-02   5.8799894e-02   5.8399895e-02   5.7999897e-02   5.7599898e-02   5.7199900e-02   5.6799901e-02   5.6399903e-02   5.5999904e-02   5.5599906e-02   5.5199907e-02   5.4799909e-02   5.4399910e-02   5.3999912e-02   5.3599913e-02   5.3199914e-02   5.2799916e-02   5.2399917e-02   5.1999919e-02   5.1599920e-02   5.1199922e-02   5.0799923e-02   5.0399925e-02   4.9999926e-02   4.9599928e-02   4.9199929e-02   4.8799931e-02   4.8399932e-02   4.7999934e-02   4.7599935e-02   4.7199937e-02   4.6799938e-02   4.6399940e-02   4.5999941e-02   4.5599943e-02   4.5199944e-02   4.4799945e-02   4.4399947e-02   4.3999948e-02   4.3599950e-02   4.3199951e-02   4.2799953e-02   4.2399954e-02   4.1999956e-02   4.1599957e-02   4.1199959e-02   4.0799960e-02   4.0399962e-02   3.9999963e-02   3.9599965e-02   3.9199966e-02   3.8799968e-02   3.8399969e-02   3.7999971e-02   3.7599972e-02   3.7199973e-02   3.6799975e-02   3.6399976e-02   3.5999978e-02
7.8000000e-01   7.8000000e-01   7.8000000e-01   7.8000000e-01   7.8000000e-01   7.8000000e-01   7.8000000e-01   7.8000000e-01   7.8000000e-01   7.8000000e-01   7.8000000e-01   7.8000000e-01   7.8000000e-01   7.8000000e-01   7.8000000e-01   7.8000000e-01   7.8000000e-01   7.8000000e-01   7.8000000e-01   7.8000000e-01   7.8000000e-01   7.8000000e-01   7.8000000e-01   7.8000000e-01   7.8000000e-01   7.8000000e-01   7.8000000e-01   7.8000000e-01   7.8000000e-01   7.8000000e-01   7.8000000e-01   7.8000000e-01   7.8000000e-01   7.8000000e-01   7.8000000e-01   7.8000000e-01   7.8000000e-01   7.8000000e-01   7.8000000e-01   7.8000000e-01   7.8000000e-01   7.8000000e-01   7.8000000e-01   7.8000000e-01   7.8000000e-01   7.8000000e-01   7.8000000e-01   7.8000000e-01   7.8000000e-01   7.8000000e-01   7.8000000e-01   7.6904700e-01   7.5809401e-01   7.4714101e-01   7.3618802e-01   7.2523502e-01   7.1428203e-01   7.0332903e-01   6.9237604e-01   6.8142304e-01   6.7047005e-01   6.5951705e-01   6.4856406e-01   6.3761106e-01   6.2665807e-01   6.1570507e-01   6.0475208e-01   5.9379908e-01   5.8284608e-01   5.7189309e-01   5.6094009e-01   5.4998710e-01   5.3903410e-01   5.2808111e-01   5.1712811e-01   5.0617512e-01   4.9522212e-01   4.8426913e-01   4.7331613e-01   4.6236314e-01   4.5141014e-01   4.4045715e-01   4.2950415e-01   4.1855116e-01   4.0759816e-01   3.9664516e-01   3.8569217e-01   3.7473917e-01   3.6378618e-01   3.5283318e-01   3.4188019e-01   3.3092719e-01   3.1997420e-01   3.0902120e-01   2.9806821e-01   2.8711521e-01   2.7616222e-01   2.6520922e-01   2.5425623e-01   2.4330323e-01   2.3235024e-01   2.2139724e-01   2.1044424e-01   1.9949125e-01   1.8853825e-01   1.7758526e-01   1.6663226e-01   1.5567927e-01   1.4472627e-01   1.3377328e-01   1.2282028e-01   1.1186729e-01   1.0091429e-01   8.9961296e-02   7.9008301e-02   6.8055306e-02   6.3599872e-02   6.3199873e-02   6.2799875e-02   6.2399876e-02   6.1999878e-02   6.1599879e-02   6.1199881e-02   6.0799882e-02   6.0399884e-02   5.9999885e-02   5.9599887e-02   5.9199889e-02   5.8799890e-02   5.8399892e-02   5.7999893e-02   5.7599895e-02   5.7199896e-02   5.6799898e-02   5.6399899e-02   5.5999901e-02   5.5599902e-02   5.5199904e-02   5.4799905e-02   5.4399907e-02   5.3999908e-02   5.3599910e-02   5.3199911e-02   5.2799913e-02   5.2399914e-02   5.1999916e-02   5.1599918e-02   5.1199919e-02   5.0799921e-02   5.0399922e-02   4.9999924e-02   4.9599925e-02   4.9199927e-02   4.8799928e-02   4.8399930e-02   4.7999931e-02   4.7599933e-02   4.7199934e-02   4.6799936e-02   4.6399937e-02   4.5999939e-02   4.5599940e-02   4.5199942e-02   4.4799943e-02   4.4399945e-02   4.3999947e-02   4.3599948e-02   4.3199950e-02   4.2799951e-02   4.2399953e-02   4.1999954e-02   4.1599956e-02   4.1199957e-02   4.0799959e-02   4.0399960e-02   3.9999962e-02   3.9599963e-02   3.9199965e-02   3.8799966e-02   3.8399968e-02   3.7999969e-02   3.7599971e-02   3.7199973e-02   3.6799974e-02   3.6399976e-02   3.5999977e-02
7.8000000e-01   7.8000000e-01   7.8000000e-01   7.8000000e-01   7.8000000e-01   7.8000000e-01   7.8000000e-01   7.8000000e-01   7.8000000e-01   7.8000000e-01   7.8000000e-01   7.8000000e-01   7.8000000e-01   7.8000000e-01   7.8000000e-01   7.8000000e-01   7.8000000e-01   7.8000000e-01   7.8000000e-01   7.8000000e-01   7.8000000e-01   7.8000000e-01   7.8000000e-01   7.8000000e-01   7.8000000e-01   7.8000000e-01   7.8000000e-01   7.8000000e-01   7.8000000e-01   7.8000000e-01   7.8000000e-01   7.8000000e-01   7.8000000e-01   7.8000000e-01   7.8000000e-01   7.8000000e-01   7.8000000e-01   7.8000000e-01   7.8000000e-01   7.8000000e-01   7.8000000e-01   7.8000000e-01   7.8000000e-01   7.8000000e-01   7.8000000e-01   7.8000000e-01   7.8000000e-01   7.8000000e-01   7.8000000e-01   7.8000000e-01   7.8000000e-01   7.6919995e-01   7.5839989e-01   7.4759984e-01   7.3679978e-01   7.2599973e-01   7.1519968e-01   7.0439962e-01   6.9359957e-01   6.8279952e-01   6.7199946e-01   6.6119941e-01   6.5039935e-01   6.3959930e-01   6.2879925e-01   6.1799919e-01   6.0719914e-01   5.9639908e-01   5.8559903e-01   5.7479898e-01   5.6399892e-01   5.5319887e-01   5.4239882e-01   5.3159876e-01   5.2079871e-01   5.0999865e-01   4.9919860e-01   4.8839855e-01   4.7759849e-01   4.6679844e-01   4.5599838e-01   4.4519833e-01   4.3439828e-01   4.2359822e-01   4.1279817e-01   4.0199812e-01   3.9119806e-01   3.8039801e-01   3.6959795e-01   3.5879790e-01   3.4799785e-01   3.3719779e-01   3.2639774e-01   3.1559768e-01   3.0479763e-01   2.9399758e-01   2.8319752e-01   2.7239747e-01   2.6159742e-01   2.5079736e-01   2.3999731e-01   2.2919725e-01   2.1839720e-01   2.0759715e-01   1.9679709e-01   1.8599704e-01   1.7519698e-01   1.6439693e-01   1.5359688e-01   1.4279682e-01   1.3199677e-01   1.2119672e-01   1.1039666e-01   9.9596608e-02   8.8796554e-02   7.7996500e-02   6.7196446e-02   6.3199869e-02   6.2799870e-02   6.2399872e-02   6.1999873e-02   6.1599875e-02   6.1199877e-02   6.0799878e-02   6.0399880e-02   5.9999881e-02   5.9599883e-02   5.9199885e-02   5.8799886e-02   5.8399888e-02   5.7999889e-02   5.7599891e-02   5.7199892e-02   5.6799894e-02   5.6399896e-02   5.5999897e-02   5.5599899e-02   5.5199900e-02   5.4799902e-02   5.4399904e-02   5.3999905e-02   5.3599907e-02   5.3199908e-02   5.2799910e-02   5.2399911e-02   5.1999913e-02   5.1599915e-02   5.1199916e-02   5.0799918e-02   5.0399919e-02   4.9999921e-02   4.9599923e-02   4.9199924e-02   4.8799926e-02   4.8399927e-02   4.7999929e-02   4.7599930e-02   4.7199932e-02   4.6799934e-02   4.6399935e-02   4.5999937e-02   4.5599938e-02   4.5199940e-02   4.4799941e-02   4.4399943e-02   4.3999945e-02   4.3599946e-02   4.3199948e-02   4.2799949e-02   4.2399951e-02   4.1999953e-02   4.1599954e-02   4.1199956e-02   4.0799957e-02   4.0399959e-02   3.9999960e-02   3.9599962e-02   3.9199964e-02   3.8799965e-02   3.8399967e-02   3.7999968e-02   3.7599970e-02   3.7199972e-02   3.6799973e-02   3.6399975e-02   3.5999976e-02
7.8000000e-01   7.8000000e-01   7.8000000e-01   7.8000000e-01   7.8000000e-01   7.8000000e-01   7.8000000e-01   7.8000000e-01   7.8000000e-01   7.8000000e-01   7.8000000e-01   7.8000000e-01   7.8000000e-01   7.8000000e-01   7.8000000e-01   7.8000000e-01   7.8000000e-01   7.8000000e-01   7.8000000e-01   7.8000000e-01   7.8000000e-01   7.8000000e-01   7.8000000e-01   7.8000000e-01   7.8000000e-01   7.8000000e-01   7.8000000e-01   7.8000000e-01   7.8000000e-01   7.8000000e-01   7.8000000e-01   7.8000000e-01   7.8000000e-01   7.8000000e-01   7.8000000e-01   7.8000000e-01   7.8000000e-01   7.8000000e-01   7.8000000e-01   7.8000000e-01   7.8000000e-01   7.8000000e-01   7.8000000e-01   7.8000000e-01   7.8000000e-01   7.8000000e-01   7.8000000e-01   7.8000000e-01   7.8000000e-01   7.8000000e-01   7.8000000e-01   7.6934852e-01   7.5869704e-01   7.4804555e-01   7.3739407e-01   7.2674259e-01   7.1609111e-01   7.0543963e-01   6.9478814e-01   6.8413666e-01   6.7348518e-01   6.6283370e-01   6.5218221e-01   6.4153073e-01   6.3087925e-01   6.2022777e-01   6.0957629e-01   5.9892480e-01   5.8827332e-01   5.7762184e-01   5.6697036e-01   5.5631888e-01   5.4566739e-01   5.3501591e-01   5.2436443e-01   5.1371295e-01   5.0306146e-01   4.9240998e-01   4.8175850e-01   4.7110702e-01   4.6045554e-01   4.4980405e-01   4.3915257e-01   4.2850109e-01   4.1784961e-01   4.0719813e-01   3.9654664e-01   3.8589516e-01   3.7524368e-01   3.6459220e-01   3.5394071e-01   3.4328923e-01   3.3263775e-01   3.2198627e-01   3.1133479e-01   3.0068330e-01   2.9003182e-01   2.7938034e-01   2.6872886e-01   2.5807738e-01   2.4742589e-01   2.3677441e-01   2.2612293e-01   2.1547145e-01   2.0481996e-01   1.9416848e-01   1.8351700e-01   1.7286552e-01   1.6221404e-01   1.5156255e-01   1.4091107e-01   1.3025959e-01   1.1960811e-01   1.0895663e-01   9.8305143e-02   8.7653661e-02   7.7002179e-02   6.6350697e-02   6.2799866e-02   6.2399867e-02   6.1999869e-02   6.1599871e-02   6.1199872e-02   6.0799874e-02   6.0399876e-02   5.9999877e-02   5.9599879e-02   5.9199880e-02   5.8799882e-02   5.8399884e-02   5.7999885e-02   5.7599887e-02   5.7199889e-02   5.6799890e-02   5.6399892e-02   5.5999894e-02   5.5599895e-02   5.5199897e-02   5.4799898e-02   5.4399900e-02   5.3999902e-02   5.3599903e-02   5.3199905e-02   5.2799907e-02   5.2399908e-02   5.1999910e-02   5.1599912e-02   5.1199913e-02   5.0799915e-02   5.0399917e-02   4.9999918e-02   4.9599920e-02   4.9199921e-02   4.8799923e-02   4.8399925e-02   4.7999926e-02   4.7599928e-02   4.7199930e-02   4.6799931e-02   4.6399933e-02   4.5999935e-02   4.5599936e-02   4.5199938e-02   4.4799939e-02   4.4399941e-02   4.3999943e-02   4.3599944e-02   4.3199946e-02   4.2799948e-02   4.2399949e-02   4.1999951e-02   4.1599953e-02   4.1199954e-02   4.0799956e-02   4.0399957e-02   3.9999959e-02   3.9599961e-02   3.9199962e-02   3.8799964e-02   3.8399966e-02   3.7999967e-02   3.7599969e-02   3.7199971e-02   3.6799972e-02   3.6399974e-02   3.5999975e-02
7.8000000e-01   7.8000000e-01   7.8000000e-01   7.8000000e-01   7.8000000e-01   7.8000000e-01   7.8000000e-01   7.8000000e-01   7.8000000e-01   7.8000000e-01   7.8000000e-01   7.8000000e-01   7.8000000e-01   7.8000000e-01   7.8000000e-01   7.8000000e-01   7.8000000e-01   7.8000000e-01   7.8000000e-01   7.8000000e-01   7.8000000e-01   7.8000000e-01   7.8000000e-01   7.8000000e-01   7.8000000e-01   7.8000000e-01   7.8000000e-01   7.8000000e-01   7.8000000e-01   7.8000000e-01   7.8000000e-01   7.8000000e-01   7.8000000e-01   7.8000000e-01   7.8000000e-01   7.8000000e-01   7.8000000e-01   7.8000000e-01   7.8000000e-01   7.8000000e-01   7.8000000e-01   7.8000000e-01   7.8000000e-01   7.8000000e-01   7.8000000e-01   7.8000000e-01   7.8000000e-01   7.8000000e-01   7.8000000e-01   7.8000000e-01   7.8000000e-01   7.6949290e-01   7.5898581e-01   7.4847871e-01   7.3797162e-01   7.2746452e-01   7.1695743e-01   7.0645033e-01   6.9594324e-01   6.8543614e-01   6.7492904e-01   6.6442195e-01   6.5391485e-01   6.4340776e-01   6.3290066e-01   6.2239357e-01   6.1188647e-01   6.0137938e-01   5.9087228e-01   5.8036518e-01   5.6985809e-01   5.5935099e-01   5.4884390e-01   5.3833680e-01   5.2782971e-01   5.1732261e-01   5.0681552e-01   4.9630842e-01   4.8580133e-01   4.7529423e-01   4.6478713e-01   4.5428004e-01   4.4377294e-01   4.3326585e-01   4.2275875e-01   4.1225166e-01   4.0174456e-01   3.9123747e-01   3.8073037e-01   3.7022327e-01   3.5971618e-01   3.4920908e-01   3.3870199e-01   3.2819489e-01   3.1768780e-01   3.0718070e-01   2.9667361e-01   2.8616651e-01   2.7565941e-01   2.6515232e-01   2.5464522e-01   2.4413813e-01   2.3363103e-01   2.2312394e-01   2.1261684e-01   2.0210975e-01   1.9160265e-01   1.8109555e-01   1.7058846e-01   1.6008136e-01   1.4957427e-01   1.3906717e-01   1.2856008e-01   1.1805298e-01   1.0754589e-01   9.7038791e-02   8.6531695e-02   7.6024600e-02   6.5517504e-02   6.2399863e-02   6.1999864e-02   6.1599866e-02   6.1199868e-02   6.0799870e-02   6.0399871e-02   5.9999873e-02   5.9599875e-02   5.9199876e-02   5.8799878e-02   5.8399880e-02   5.7999881e-02   5.7599883e-02   5.7199885e-02   5.6799886e-02   5.6399888e-02   5.5999890e-02   5.5599892e-02   5.5199893e-02   5.4799895e-02   5.4399897e-02   5.3999898e-02   5.3599900e-02   5.3199902e-02   5.2799903e-02   5.2399905e-02   5.1999907e-02   5.1599909e-02   5.1199910e-02   5.0799912e-02   5.0399914e-02   4.9999915e-02   4.9599917e-02   4.9199919e-02   4.8799920e-02   4.8399922e-02   4.7999924e-02   4.7599925e-02   4.7199927e-02   4.6799929e-02   4.6399931e-02   4.5999932e-02   4.5599934e-02   4.5199936e-02   4.4799937e-02   4.4399939e-02   4.3999941e-02   4.3599942e-02   4.3199944e-02   4.2799946e-02   4.2399947e-02   4.1999949e-02   4.1599951e-02   4.1199953e-02   4.0799954e-02   4.0399956e-02   3.9999958e-02   3.9599959e-02   3.9199961e-02   3.8799963e-02   3.8399964e-02   3.7999966e-02   3.7599968e-02   3.7199970e-02   3.6799971e-02   3.6399973e-02   3.5999975e-02
7.8000000e-01   7.8000000e-01   7.8000000e-01   7.8000000e-01   7.8000000e-01   7.8000000e-01   7.8000000e-01   7.8000000e-01   7.8000000e-01   7.8000000e-01   7.8000000e-01   7.8000000e-01   7.8000000e-01   7.8000000e-01   7.8000000e-01   7.8000000e-01   7.8000000e-01   7.8000000e-01   7.8000000e-01   7.8000000e-01   7.8000000e-01   7.8000000e-01   7.8000000e-01   7.8000000e-01   7.8000000e-01   7.8000000e-01   7.8000000e-01   7.8000000e-01   7.8000000e-01   7.8000000e-01   7.8000000e-01   7.8000000e-01   7.8000000e-01   7.8000000e-01   7.8000000e-01   7.8000000e-01   7.8000000e-01   7.8000000e-01   7.8000000e-01   7.8000000e-01   7.8000000e-01   7.8000000e-01   7.8000000e-01   7.8000000e-01   7.8000000e-01   7.8000000e-01   7.8000000e-01   7.8000000e-01   7.8000000e-01   7.8000000e-01   7.8000000e-01   7.6963328e-01   7.5926656e-01   7.4889984e-01   7.3853312e-01   7.2816640e-01   7.1779968e-01   7.0743296e-01   6.9706624e-01   6.8669952e-01   6.7633280e-01   6.6596608e-01   6.5559936e-01   6.4523264e-01   6.3486592e-01   6.2449921e-01   6.1413249e-01   6.0376577e-01   5.9339905e-01   5.8303233e-01   5.7266561e-01   5.6229889e-01   5.5193217e-01   5.4156545e-01   5.3119873e-01   5.2083201e-01   5.1046529e-01   5.0009857e-01   4.8973185e-01   4.7936513e-01   4.6899841e-01   4.5863169e-01   4.4826497e-01   4.3789825e-01   4.2753153e-01   4.1716481e-01   4.0679809e-01   3.9643137e-01   3.8606465e-01   3.7569793e-01   3.6533121e-01   3.5496449e-01   3.4459777e-01   3.3423105e-01   3.2386434e-01   3.1349762e-01   3.0313090e-01   2.9276418e-01   2.8239746e-01   2.7203074e-01   2.6166402e-01   2.5129730e-01   2.4093058e-01   2.3056386e-01   2.2019714e-01   2.0983042e-01   1.9946370e-01   1.8909698e-01   1.7873026e-01   1.6836354e-01   1.5799682e-01   1.4763010e-01   1.3726338e-01   1.2689666e-01   1.1652994e-01   1.0616322e-01   9.5796503e-02   8.5429783e-02   7.5063064e-02   6.4696344e-02   6.1999860e-02   6.1599862e-02   6.1199863e-02   6.0799865e-02   6.0399867e-02   5.9999869e-02   5.9599870e-02   5.9199872e-02   5.8799874e-02   5.8399876e-02   5.7999877e-02   5.7599879e-02   5.7199881e-02   5.6799883e-02   5.6399884e-02   5.5999886e-02   5.5599888e-02   5.5199890e-02   5.4799891e-02   5.4399893e-02   5.3999895e-02   5.3599897e-02   5.3199898e-02   5.2799900e-02   5.2399902e-02   5.1999904e-02   5.1599905e-02   5.1199907e-02   5.0799909e-02   5.0399911e-02   4.9999912e-02   4.9599914e-02   4.9199916e-02   4.8799918e-02   4.8399919e-02   4.7999921e-02   4.7599923e-02   4.7199925e-02   4.6799926e-02   4.6399928e-02   4.5999930e-02   4.5599932e-02   4.5199933e-02   4.4799935e-02   4.4399937e-02   4.3999939e-02   4.3599940e-02   4.3199942e-02   4.2799944e-02   4.2399946e-02   4.1999947e-02   4.1599949e-02   4.1199951e-02   4.0799953e-02   4.0399954e-02   3.9999956e-02   3.9599958e-02   3.9199960e-02   3.8799961e-02   3.8399963e-02   3.7999965e-02   3.7599967e-02   3.7199968e-02   3.6799970e-02   3.6399972e-02   3.5999974e-02
7.8000000e-01   7.8000000e-01   7.8000000e-01   7.8000000e-01   7.8000000e-01   7.8000000e-01   7.8000000e-01   7.8000000e-01   7.8000000e-01   7.8000000e-01   7.8000000e-01   7.8000000e-01   7.8000000e-01   7.8000000e-01   7.8000000e-01   7.8000000e-01   7.8000000e-01   7.8000000e-01   7.8000000e-01   7.8000000e-01   7.8000000e-01   7.8000000e-01   7.8000000e-01   7.8000000e-01   7.8000000e-01   7.8000000e-01   7.8000000e-01   7.8000000e-01   7.8000000e-01   7.8000000e-01   7.8000000e-01   7.8000000e-01   7.8000000e-01   7.8000000e-01   7.8000000e-01   7.8000000e-01   7.8000000e-01   7.8000000e-01   7.8000000e-01   7.8000000e-01   7.8000000e-01   7.8000000e-01   7.8000000e-01   7.8000000e-01   7.8000000e-01   7.8000000e-01   7.8000000e-01   7.8000000e-01   7.8000000e-01   7.8000000e-01   7.8000000e-01   7.6976981e-01   7.5953962e-01   7.4930943e-01   7.3907924e-01   7.2884905e-01   7.1861886e-01   7.0838867e-01   6.9815848e-01   6.8792829e-01   6.7769810e-01   6.6746791e-01   6.5723772e-01   6.4700753e-01   6.3677734e-01   6.2654715e-01   6.1631697e-01   6.0608678e-01   5.9585659e-01   5.8562640e-01   5.7539621e-01   5.6516602e-01   5.5493583e-01   5.4470564e-01   5.3447545e-01   5.2424526e-01   5.1401507e-01   5.0378488e-01   4.9355469e-01   4.8332450e-01   4.7309431e-01   4.6286412e-01   4.5263393e-01   4.4240374e-01   4.3217355e-01   4.2194336e-01   4.1171317e-01   4.0148298e-01   3.9125279e-01   3.8102260e-01   3.7079241e-01   3.6056222e-01   3.5033203e-01   3.4010184e-01   3.2987165e-01   3.1964146e-01   3.0941127e-01   2.9918109e-01   2.8895090e-01   2.7872071e-01   2.6849052e-01   2.5826033e-01   2.4803014e-01   2.3779995e-01   2.2756976e-01   2.1733957e-01   2.0710938e-01   1.9687919e-01   1.8664900e-01   1.7641881e-01   1.6618862e-01   1.5595843e-01   1.4572824e-01   1.3549805e-01   1.2526786e-01   1.1503767e-01   1.0480748e-01   9.4577292e-02   8.4347102e-02   7.4116912e-02   6.3886722e-02   6.1599857e-02   6.1199859e-02   6.0799860e-02   6.0399862e-02   5.9999864e-02   5.9599866e-02   5.9199868e-02   5.8799870e-02   5.8399871e-02   5.7999873e-02   5.7599875e-02   5.7199877e-02   5.6799879e-02   5.6399880e-02   5.5999882e-02   5.5599884e-02   5.5199886e-02   5.4799888e-02   5.4399889e-02   5.3999891e-02   5.3599893e-02   5.3199895e-02   5.2799897e-02   5.2399899e-02   5.1999900e-02   5.1599902e-02   5.1199904e-02   5.0799906e-02   5.0399908e-02   4.9999909e-02   4.9599911e-02   4.9199913e-02   4.8799915e-02   4.8399917e-02   4.7999918e-02   4.7599920e-02   4.7199922e-02   4.6799924e-02   4.6399926e-02   4.5999928e-02   4.5599929e-02   4.5199931e-02   4.4799933e-02   4.4399935e-02   4.3999937e-02   4.3599938e-02   4.3199940e-02   4.2799942e-02   4.2399944e-02   4.1999946e-02   4.1599947e-02   4.1199949e-02   4.0799951e-02   4.0399953e-02   3.9999955e-02   3.9599957e-02   3.9199958e-02   3.8799960e-02   3.8399962e-02   3.7999964e-02   3.7599966e-02   3.7199967e-02   3.6799969e-02   3.6399971e-02   3.5999973e-02
7.8000000e-01   7.8000000e-01   7.8000000e-01   7.8000000e-01   7.8000000e-01   7.8000000e-01   7.8000000e-01   7.8000000e-01   7.8000000e-01   7.8000000e-01   7.8000000e-01   7.8000000e-01   7.8000000e-01   7.8000000e-01   7.8000000e-01   7.8000000e-01   7.8000000e-01   7.8000000e-01   7.8000000e-01   7.8000000e-01   7.8000000e-01   7.8000000e-01   7.8000000e-01   7.8000000e-01   7.8000000e-01   7.8000000e-01   7.8000000e-01   7.8000000e-01   7.8000000e-01   7.8000000e-01   7.8000000e-01   7.8000000e-01   7.8000000e-01   7.8000000e-01   7.8000000e-01   7.8000000e-01   7.8000000e-01   7.8000000e-01   7.8000000e-01   7.8000000e-01   7.8000000e-01   7.8000000e-01   7.8000000e-01   7.8000000e-01   7.8000000e-01   7.8000000e-01   7.8000000e-01   7.8000000e-01   7.8000000e-01   7.8000000e-01   7.8000000e-01   7.6990265e-01   7.5980530e-01   7.4970795e-01   7.3961060e-01   7.2951325e-01   7.1941590e-01   7.0931855e-01   6.9922120e-01   6.8912385e-01   6.7902650e-01   6.6892915e-01   6.5883180e-01   6.4873445e-01   6.3863710e-01   6.2853975e-01   6.1844240e-01   6.0834506e-01   5.9824771e-01   5.8815036e-01   5.7805301e-01   5.6795566e-01   5.5785831e-01   5.4776096e-01   5.3766361e-01   5.2756626e-01   5.1746891e-01   5.0737156e-01   4.9727421e-01   4.8717686e-01   4.7707951e-01   4.6698216e-01   4.5688481e-01   4.4678746e-01   4.3669011e-01   4.2659276e-01   4.1649541e-01   4.0639806e-01   3.9630071e-01   3.8620336e-01   3.7610601e-01   3.6600866e-01   3.5591131e-01   3.4581396e-01   3.3571661e-01   3.2561926e-01   3.1552191e-01   3.0542456e-01   2.9532721e-01   2.8522986e-01   2.7513252e-01   2.6503517e-01   2.5493782e-01   2.4484047e-01   2.3474312e-01   2.2464577e-01   2.1454842e-01   2.0445107e-01   1.9435372e-01   1.8425637e-01   1.7415902e-01   1.6406167e-01   1.5396432e-01   1.4386697e-01   1.3376962e-01   1.2367227e-01   1.1357492e-01   1.0347757e-01   9.3380221e-02   8.3282871e-02   7.3185521e-02   6.3088172e-02   6.1199854e-02   6.0799856e-02   6.0399858e-02   5.9999860e-02   5.9599861e-02   5.9199863e-02   5.8799865e-02   5.8399867e-02   5.7999869e-02   5.7599871e-02   5.7199873e-02   5.6799874e-02   5.6399876e-02   5.5999878e-02   5.5599880e-02   5.5199882e-02   5.4799884e-02   5.4399886e-02   5.3999888e-02   5.3599889e-02   5.3199891e-02   5.2799893e-02   5.2399895e-02   5.1999897e-02   5.1599899e-02   5.1199901e-02   5.0799903e-02   5.0399904e-02   4.9999906e-02   4.9599908e-02   4.9199910e-02   4.8799912e-02   4.8399914e-02   4.7999916e-02   4.7599918e-02   4.7199919e-02   4.6799921e-02   4.6399923e-02   4.5999925e-02   4.5599927e-02   4.5199929e-02   4.4799931e-02   4.4399933e-02   4.3999934e-02   4.3599936e-02   4.3199938e-02   4.2799940e-02   4.2399942e-02   4.1999944e-02   4.1599946e-02   4.1199948e-02   4.0799949e-02   4.0399951e-02   3.9999953e-02   3.9599955e-02   3.9199957e-02   3.8799959e-02   3.8399961e-02   3.7999963e-02   3.7599964e-02   3.7199966e-02   3.6799968e-02   3.6399970e-02   3.5999972e-02
7.8000000e-01   7.8000000e-01   7.8000000e-01   7.8000000e-01   7.8000000e-01   7.8000000e-01   7.8000000e-01   7.8000000e-01   7.8000000e-01   7.8000000e-01   7.8000000e-01   7.8000000e-01   7.8000000e-01   7.8000000e-01   7.8000000e-01   7.8000000e-01   7.8000000e-01   7.8000000e-01   7.8000000e-01   7.8000000e-01   7.8000000e-01   7.8000000e-01   7.8000000e-01   7.8000000e-01   7.8000000e-01   7.8000000e-01   7.8000000e-01   7.8000000e-01   7.8000000e-01   7.8000000e-01   7.8000000e-01   7.8000000e-01   7.8000000e-01   7.8000000e-01   7.8000000e-01   7.8000000e-01   7.8000000e-01   7.8000000e-01   7.8000000e-01   7.8000000e-01   7.8000000e-01   7.8000000e-01   7.8000000e-01   7.8000000e-01   7.8000000e-01   7.8000000e-01   7.8000000e-01   7.8000000e-01   7.8000000e-01   7.8000000e-01   7.8000000e-01   7.7003195e-01   7.6006390e-01   7.5009584e-01   7.4012779e-01   7.3015974e-01   7.2019169e-01   7.1022364e-01   7.0025558e-01   6.9028753e-01   6.8031948e-01   6.7035143e-01   6.6038337e-01   6.5041532e-01   6.4044727e-01   6.3047922e-01   6.2051117e-01   6.1054311e-01   6.0057506e-01   5.9060701e-01   5.8063896e-01   5.7067091e-01   5.6070285e-01   5.5073480e-01   5.4076675e-01   5.3079870e-01   5.2083065e-01   5.1086259e-01   5.0089454e-01   4.9092649e-01   4.8095844e-01   4.7099038e-01   4.6102233e-01   4.5105428e-01   4.4108623e-01   4.3111818e-01   4.2115012e-01   4.1118207e-01   4.0121402e-01   3.9124597e-01   3.8127792e-01   3.7130986e-01   3.6134181e-01   3.5137376e-01   3.4140571e-01   3.3143766e-01   3.2146960e-01   3.1150155e-01   3.0153350e-01   2.9156545e-01   2.8159740e-01   2.7162934e-01   2.6166129e-01   2.5169324e-01   2.4172519e-01   2.3175713e-01   2.2178908e-01   2.1182103e-01   2.0185298e-01   1.9188493e-01   1.8191687e-01   1.7194882e-01   1.6198077e-01   1.5201272e-01   1.4204467e-01   1.3207661e-01   1.2210856e-01   1.1214051e-01   1.0217246e-01   9.2204405e-02   8.2236353e-02   7.2268301e-02   6.2300249e-02   6.0799851e-02   6.0399853e-02   5.9999855e-02   5.9599857e-02   5.9199859e-02   5.8799861e-02   5.8399863e-02   5.7999864e-02   5.7599866e-02   5.7199868e-02   5.6799870e-02   5.6399872e-02   5.5999874e-02   5.5599876e-02   5.5199878e-02   5.4799880e-02   5.4399882e-02   5.3999884e-02   5.3599886e-02   5.3199888e-02   5.2799890e-02   5.2399892e-02   5.1999894e-02   5.1599895e-02   5.1199897e-02   5.0799899e-02   5.0399901e-02   4.9999903e-02   4.9599905e-02   4.9199907e-02   4.8799909e-02   4.8399911e-02   4.7999913e-02   4.7599915e-02   4.7199917e-02   4.6799919e-02   4.6399921e-02   4.5999923e-02   4.5599925e-02   4.5199926e-02   4.4799928e-02   4.4399930e-02   4.3999932e-02   4.3599934e-02   4.3199936e-02   4.2799938e-02   4.2399940e-02   4.1999942e-02   4.1599944e-02   4.1199946e-02   4.0799948e-02   4.0399950e-02   3.9999952e-02   3.9599954e-02   3.9199955e-02   3.8799957e-02   3.8399959e-02   3.7999961e-02   3.7599963e-02   3.7199965e-02   3.6799967e-02   3.6399969e-02   3.5999971e-02
7.8000000e-01   7.8000000e-01   7.8000000e-01   7.8000000e-01   7.8000000e-01   7.8000000e-01   7.8000000e-01   7.8000000e-01   7.8000000e-01   7.8000000e-01   7.8000000e-01   7.8000000e-01   7.8000000e-01   7.8000000e-01   7.8000000e-01   7.8000000e-01   7.8000000e-01   7.8000000e-01   7.8000000e-01   7.8000000e-01   7.8000000e-01   7.8000000e-01   7.8000000e-01   7.8000000e-01   7.8000000e-01   7.8000000e-01   7.8000000e-01   7.8000000e-01   7.8000000e-01   7.8000000e-01   7.8000000e-01   7.8000000e-01   7.8000000e-01   7.8000000e-01   7.8000000e-01   7.8000000e-01   7.8000000e-01   7.8000000e-01   7.8000000e-01   7.8000000e-01   7.8000000e-01   7.8000000e-01   7.8000000e-01   7.8000000e-01   7.8000000e-01   7.8000000e-01   7.8000000e-01   7.8000000e-01   7.8000000e-01   7.8000000e-01   7.8000000e-01   7.7015784e-01   7.6031569e-01   7.5047353e-01   7.4063137e-01   7.3078921e-01   7.2094706e-01   7.1110490e-01   7.0126274e-01   6.9142059e-01   6.8157843e-01   6.7173627e-01   6.6189412e-01   6.5205196e-01   6.4220980e-01   6.3236764e-01   6.2252549e-01   6.1268333e-01   6.0284117e-01   5.9299902e-01   5.8315686e-01   5.7331470e-01   5.6347254e-01   5.5363039e-01   5.4378823e-01   5.3394607e-01   5.2410392e-01   5.1426176e-01   5.0441960e-01   4.9457745e-01   4.8473529e-01   4.7489313e-01   4.6505097e-01   4.5520882e-01   4.4536666e-01   4.3552450e-01   4.2568235e-01   4.1584019e-01   4.0599803e-01   3.9615587e-01   3.8631372e-01   3.7647156e-01   3.6662940e-01   3.5678725e-01   3.4694509e-01   3.3710293e-01   3.2726078e-01   3.1741862e-01   3.0757646e-01   2.9773430e-01   2.8789215e-01   2.7804999e-01   2.6820783e-01   2.5836568e-01   2.4852352e-01   2.3868136e-01   2.2883920e-01   2.1899705e-01   2.0915489e-01   1.9931273e-01   1.8947058e-01   1.7962842e-01   1.6978626e-01   1.5994410e-01   1.5010195e-01   1.4025979e-01   1.3041763e-01   1.2057548e-01   1.1073332e-01   1.0089116e-01   9.1049006e-02   8.1206848e-02   7.1364691e-02   6.1522534e-02   6.0399848e-02   5.9999850e-02   5.9599852e-02   5.9199854e-02   5.8799856e-02   5.8399858e-02   5.7999860e-02   5.7599862e-02   5.7199864e-02   5.6799866e-02   5.6399868e-02   5.5999870e-02   5.5599872e-02   5.5199874e-02   5.4799876e-02   5.4399878e-02   5.3999880e-02   5.3599882e-02   5.3199884e-02   5.2799886e-02   5.2399888e-02   5.1999890e-02   5.1599892e-02   5.1199894e-02   5.0799896e-02   5.0399898e-02   4.9999900e-02   4.9599902e-02   4.9199904e-02   4.8799906e-02   4.8399908e-02   4.7999910e-02   4.7599912e-02   4.7199914e-02   4.6799916e-02   4.6399918e-02   4.5999920e-02   4.5599922e-02   4.5199924e-02   4.4799926e-02   4.4399928e-02   4.3999930e-02   4.3599932e-02   4.3199934e-02   4.2799936e-02   4.2399938e-02   4.1999940e-02   4.1599942e-02   4.1199944e-02   4.0799946e-02   4.0399948e-02   3.9999950e-02   3.9599952e-02   3.9199954e-02   3.8799956e-02   3.8399958e-02   3.7999960e-02   3.7599962e-02   3.7199964e-02   3.6799966e-02   3.6399968e-02   3.5999970e-02
7.8000000e-01   7.8000000e-01   7.8000000e-01   7.8000000e-01   7.8000000e-01   7.8000000e-01   7.8000000e-01   7.8000000e-01   7.8000000e-01   7.8000000e-01   7.8000000e-01   7.8000000e-01   7.8000000e-01   7.8000000e-01   7.8000000e-01   7.8000000e-01   7.8000000e-01   7.8000000e-01   7.8000000e-01   7.8000000e-01   7.8000000e-01   7.8000000e-01   7.8000000e-01   7.8000000e-01   7.8000000e-01   7.8000000e-01   7.8000000e-01   7.8000000e-01   7.8000000e-01   7.8000000e-01   7.8000000e-01   7.8000000e-01   7.8000000e-01   7.8000000e-01   7.8000000e-01   7.8000000e-01   7.8000000e-01   7.8000000e-01   7.8000000e-01   7.8000000e-01   7.8000000e-01   7.8000000e-01   7.8000000e-01   7.8000000e-01   7.8000000e-01   7.8000000e-01   7.8000000e-01   7.8000000e-01   7.8000000e-01   7.8000000e-01   7.8000000e-01   7.7028047e-01   7.6056094e-01   7.5084140e-01   7.4112187e-01   7.3140234e-01   7.2168281e-01   7.1196328e-01   7.0224374e-01   6.9252421e-01   6.8280468e-01   6.7308515e-01   6.6336562e-01   6.5364608e-01   6.4392655e-01   6.3420702e-01   6.2448749e-01   6.1476796e-01   6.0504842e-01   5.9532889e-01   5.8560936e-01   5.7588983e-01   5.6617030e-01   5.5645076e-01   5.4673123e-01   5.3701170e-01   5.2729217e-01   5.1757264e-01   5.0785310e-01   4.9813357e-01   4.8841404e-01   4.7869451e-01   4.6897498e-01   4.5925544e-01   4.4953591e-01   4.3981638e-01   4.3009685e-01   4.2037732e-01   4.1065778e-01   4.0093825e-01   3.9121872e-01   3.8149919e-01   3.7177966e-01   3.6206012e-01   3.5234059e-01   3.4262106e-01   3.3290153e-01   3.2318200e-01   3.1346246e-01   3.0374293e-01   2.9402340e-01   2.8430387e-01   2.7458433e-01   2.6486480e-01   2.5514527e-01   2.4542574e-01   2.3570621e-01   2.2598667e-01   2.1626714e-01   2.0654761e-01   1.9682808e-01   1.8710855e-01   1.7738901e-01   1.6766948e-01   1.5794995e-01   1.4823042e-01   1.3851089e-01   1.2879135e-01   1.1907182e-01   1.0935229e-01   9.9632759e-02   8.9913227e-02   8.0193695e-02   7.0474163e-02   6.0754630e-02   5.9999845e-02   5.9599847e-02   5.9199849e-02   5.8799851e-02   5.8399853e-02   5.7999855e-02   5.7599857e-02   5.7199860e-02   5.6799862e-02   5.6399864e-02   5.5999866e-02   5.5599868e-02   5.5199870e-02   5.4799872e-02   5.4399874e-02   5.3999876e-02   5.3599878e-02   5.3199880e-02   5.2799882e-02   5.2399884e-02   5.1999886e-02   5.1599888e-02   5.1199891e-02   5.0799893e-02   5.0399895e-02   4.9999897e-02   4.9599899e-02   4.9199901e-02   4.8799903e-02   4.8399905e-02   4.7999907e-02   4.7599909e-02   4.7199911e-02   4.6799913e-02   4.6399915e-02   4.5999917e-02   4.5599919e-02   4.5199921e-02   4.4799924e-02   4.4399926e-02   4.3999928e-02   4.3599930e-02   4.3199932e-02   4.2799934e-02   4.2399936e-02   4.1999938e-02   4.1599940e-02   4.1199942e-02   4.0799944e-02   4.0399946e-02   3.9999948e-02   3.9599950e-02   3.9199952e-02   3.8799955e-02   3.8399957e-02   3.7999959e-02   3.7599961e-02   3.7199963e-02   3.6799965e-02   3.6399967e-02   3.5999969e-02
7.8000000e-01   7.8000000e-01   7.8000000e-01   7.8000000e-01   7.8000000e-01   7.8000000e-01   7.8000000e-01   7.8000000e-01   7.8000000e-01   7.8000000e-01   7.8000000e-01   7.8000000e-01   7.8000000e-01   7.8000000e-01   7.8000000e-01   7.8000000e-01   7.8000000e-01   7.8000000e-01   7.8000000e-01   7.8000000e-01   7.8000000e-01   7.8000000e-01   7.8000000e-01   7.8000000e-01   7.8000000e-01   7.8000000e-01   7.8000000e-01   7.8000000e-01   7.8000000e-01   7.8000000e-01   7.8000000e-01   7.8000000e-01   7.8000000e-01   7.8000000e-01   7.8000000e-01   7.8000000e-01   7.8000000e-01   7.8000000e-01   7.8000000e-01   7.8000000e-01   7.8000000e-01   7.8000000e-01   7.8000000e-01   7.8000000e-01   7.8000000e-01   7.8000000e-01   7.8000000e-01   7.8000000e-01   7.8000000e-01   7.8000000e-01   7.8000000e-01   7.7039995e-01   7.6079990e-01   7.5119985e-01   7.4159980e-01   7.3199974e-01   7.2239969e-01   7.1279964e-01   7.0319959e-01   6.9359954e-01   6.8399949e-01   6.7439944e-01   6.6479939e-01   6.5519933e-01   6.4559928e-01   6.3599923e-01   6.2639918e-01   6.1679913e-01   6.0719908e-01   5.9759903e-01   5.8799898e-01   5.7839892e-01   5.6879887e-01   5.5919882e-01   5.4959877e-01   5.3999872e-01   5.3039867e-01   5.2079862e-01   5.1119857e-01   5.0159852e-01   4.9199846e-01   4.8239841e-01   4.7279836e-01   4.6319831e-01   4.5359826e-01   4.4399821e-01   4.3439816e-01   4.2479811e-01   4.1519805e-01   4.0559800e-01   3.9599795e-01   3.8639790e-01   3.7679785e-01   3.6719780e-01   3.5759775e-01   3.4799770e-01   3.3839764e-01   3.2879759e-01   3.1919754e-01   3.0959749e-01   2.9999744e-01   2.9039739e-01   2.8079734e-01   2.7119729e-01   2.6159724e-01   2.5199718e-01   2.4239713e-01   2.3279708e-01   2.2319703e-01   2.1359698e-01   2.0399693e-01   1.9439688e-01   1.8479683e-01   1.7519677e-01   1.6559672e-01   1.5599667e-01   1.4639662e-01   1.3679657e-01   1.2719652e-01   1.1759647e-01   1.0799642e-01   9.8396365e-02   8.8796314e-02   7.9196262e-02   6.9596211e-02   5.9999840e-02   5.9599842e-02   5.9199844e-02   5.8799846e-02   5.8399849e-02   5.7999851e-02   5.7599853e-02   5.7199855e-02   5.6799857e-02   5.6399859e-02   5.5999861e-02   5.5599863e-02   5.5199866e-02   5.4799868e-02   5.4399870e-02   5.3999872e-02   5.3599874e-02   5.3199876e-02   5.2799878e-02   5.2399881e-02   5.1999883e-02   5.1599885e-02   5.1199887e-02   5.0799889e-02   5.0399891e-02   4.9999893e-02   4.9599895e-02   4.9199898e-02   4.8799900e-02   4.8399902e-02   4.7999904e-02   4.7599906e-02   4.7199908e-02   4.6799910e-02   4.6399913e-02   4.5999915e-02   4.5599917e-02   4.5199919e-02   4.4799921e-02   4.4399923e-02   4.3999925e-02   4.3599927e-02   4.3199930e-02   4.2799932e-02   4.2399934e-02   4.1999936e-02   4.1599938e-02   4.1199940e-02   4.0799942e-02   4.0399945e-02   3.9999947e-02   3.9599949e-02   3.9199951e-02   3.8799953e-02   3.8399955e-02   3.7999957e-02   3.7599959e-02   3.7199962e-02   3.6799964e-02   3.6399966e-02   3.5999968e-02
7.8000000e-01   7.8000000e-01   7.8000000e-01   7.8000000e-01   7.8000000e-01   7.8000000e-01   7.8000000e-01   7.8000000e-01   7.8000000e-01   7.8000000e-01   7.8000000e-01   7.8000000e-01   7.8000000e-01   7.8000000e-01   7.8000000e-01   7.8000000e-01   7.8000000e-01   7.8000000e-01   7.8000000e-01   7.8000000e-01   7.8000000e-01   7.8000000e-01   7.8000000e-01   7.8000000e-01   7.8000000e-01   7.8000000e-01   7.8000000e-01   7.8000000e-01   7.8000000e-01   7.8000000e-01   7.8000000e-01   7.8000000e-01   7.8000000e-01   7.8000000e-01   7.8000000e-01   7.8000000e-01   7.8000000e-01   7.8000000e-01   7.8000000e-01   7.8000000e-01   7.8000000e-01   7.8000000e-01   7.8000000e-01   7.8000000e-01   7.8000000e-01   7.8000000e-01   7.8000000e-01   7.8000000e-01   7.8000000e-01   7.8000000e-01   7.8000000e-01   7.7051640e-01   7.6103281e-01   7.5154921e-01   7.4206562e-01   7.3258202e-01   7.2309843e-01   7.1361483e-01   7.0413124e-01   6.9464764e-01   6.8516405e-01   6.7568045e-01   6.6619686e-01   6.5671326e-01   6.4722967e-01   6.3774607e-01   6.2826248e-01   6.1877888e-01   6.0929529e-01   5.9981169e-01   5.9032810e-01   5.8084450e-01   5.7136091e-01   5.6187731e-01   5.5239372e-01   5.4291012e-01   5.3342652e-01   5.2394293e-01   5.1445933e-01   5.0497574e-01   4.9549214e-01   4.8600855e-01   4.7652495e-01   4.6704136e-01   4.5755776e-01   4.4807417e-01   4.3859057e-01   4.2910698e-01   4.1962338e-01   4.1013979e-01   4.0065619e-01   3.9117260e-01   3.8168900e-01   3.7220541e-01   3.6272181e-01   3.5323822e-01   3.4375462e-01   3.3427103e-01   3.2478743e-01   3.1530384e-01   3.0582024e-01   2.9633664e-01   2.8685305e-01   2.7736945e-01   2.6788586e-01   2.5840226e-01   2.4891867e-01   2.3943507e-01   2.2995148e-01   2.2046788e-01   2.1098429e-01   2.0150069e-01   1.9201710e-01   1.8253350e-01   1.7304991e-01   1.6356631e-01   1.5408272e-01   1.4459912e-01   1.3511553e-01   1.2563193e-01   1.1614834e-01   1.0666474e-01   9.7181145e-02   8.7697550e-02   7.8213955e-02   6.8730360e-02   5.9599837e-02   5.9199839e-02   5.8799841e-02   5.8399844e-02   5.7999846e-02   5.7599848e-02   5.7199850e-02   5.6799852e-02   5.6399855e-02   5.5999857e-02   5.5599859e-02   5.5199861e-02   5.4799863e-02   5.4399866e-02   5.3999868e-02   5.3599870e-02   5.3199872e-02   5.2799874e-02   5.2399877e-02   5.1999879e-02   5.1599881e-02   5.1199883e-02   5.0799885e-02   5.0399888e-02   4.9999890e-02   4.9599892e-02   4.9199894e-02   4.8799896e-02   4.8399899e-02   4.7999901e-02   4.7599903e-02   4.7199905e-02   4.6799907e-02   4.6399910e-02   4.5999912e-02   4.5599914e-02   4.5199916e-02   4.4799919e-02   4.4399921e-02   4.3999923e-02   4.3599925e-02   4.3199927e-02   4.2799930e-02   4.2399932e-02   4.1999934e-02   4.1599936e-02   4.1199938e-02   4.0799941e-02   4.0399943e-02   3.9999945e-02   3.9599947e-02   3.9199949e-02   3.8799952e-02   3.8399954e-02   3.7999956e-02   3.7599958e-02   3.7199960e-02   3.6799963e-02   3.6399965e-02   3.5999967e-02
7.8000000e-01   7.8000000e-01   7.8000000e-01   7.8000000e-01   7.8000000e-01   7.8000000e-01   7.8000000e-01   7.8000000e-01   7.8000000e-01   7.8000000e-01   7.8000000e-01   7.8000000e-01   7.8000000e-01   7.8000000e-01   7.8000000e-01   7.8000000e-01   7.8000000e-01   7.8000000e-01   7.8000000e-01   7.8000000e-01   7.8000000e-01   7.8000000e-01   7.8000000e-01   7.8000000e-01   7.8000000e-01   7.8000000e-01   7.8000000e-01   7.8000000e-01   7.8000000e-01   7.8000000e-01   7.8000000e-01   7.8000000e-01   7.8000000e-01   7.8000000e-01   7.8000000e-01   7.8000000e-01   7.8000000e-01   7.8000000e-01   7.8000000e-01   7.8000000e-01   7.8000000e-01   7.8000000e-01   7.8000000e-01   7.8000000e-01   7.8000000e-01   7.8000000e-01   7.8000000e-01   7.8000000e-01   7.8000000e-01   7.8000000e-01   7.8000000e-01   7.7062995e-01   7.6125990e-01   7.5188985e-01   7.4251980e-01   7.3314975e-01   7.2377970e-01   7.1440965e-01   7.0503960e-01   6.9566954e-01   6.8629949e-01   6.7692944e-01   6.6755939e-01   6.5818934e-01   6.4881929e-01   6.3944924e-01   6.3007919e-01   6.2070914e-01   6.1133909e-01   6.0196904e-01   5.9259899e-01   5.8322894e-01   5.7385889e-01   5.6448884e-01   5.5511879e-01   5.4574874e-01   5.3637868e-01   5.2700863e-01   5.1763858e-01   5.0826853e-01   4.9889848e-01   4.8952843e-01   4.8015838e-01   4.7078833e-01   4.6141828e-01   4.5204823e-01   4.4267818e-01   4.3330813e-01   4.2393808e-01   4.1456803e-01   4.0519798e-01   3.9582793e-01   3.8645787e-01   3.7708782e-01   3.6771777e-01   3.5834772e-01   3.4897767e-01   3.3960762e-01   3.3023757e-01   3.2086752e-01   3.1149747e-01   3.0212742e-01   2.9275737e-01   2.8338732e-01   2.7401727e-01   2.6464722e-01   2.5527717e-01   2.4590712e-01   2.3653707e-01   2.2716701e-01   2.1779696e-01   2.0842691e-01   1.9905686e-01   1.8968681e-01   1.8031676e-01   1.7094671e-01   1.6157666e-01   1.5220661e-01   1.4283656e-01   1.3346651e-01   1.2409646e-01   1.1472641e-01   1.0535636e-01   9.5986306e-02   8.6616256e-02   7.7246205e-02   6.7876155e-02   5.9199834e-02   5.8799836e-02   5.8399839e-02   5.7999841e-02   5.7599843e-02   5.7199845e-02   5.6799848e-02   5.6399850e-02   5.5999852e-02   5.5599854e-02   5.5199857e-02   5.4799859e-02   5.4399861e-02   5.3999864e-02   5.3599866e-02   5.3199868e-02   5.2799870e-02   5.2399873e-02   5.1999875e-02   5.1599877e-02   5.1199879e-02   5.0799882e-02   5.0399884e-02   4.9999886e-02   4.9599889e-02   4.9199891e-02   4.8799893e-02   4.8399895e-02   4.7999898e-02   4.7599900e-02   4.7199902e-02   4.6799905e-02   4.6399907e-02   4.5999909e-02   4.5599911e-02   4.5199914e-02   4.4799916e-02   4.4399918e-02   4.3999920e-02   4.3599923e-02   4.3199925e-02   4.2799927e-02   4.2399930e-02   4.1999932e-02   4.1599934e-02   4.1199936e-02   4.0799939e-02   4.0399941e-02   3.9999943e-02   3.9599945e-02   3.9199948e-02   3.8799950e-02   3.8399952e-02   3.7999955e-02   3.7599957e-02   3.7199959e-02   3.6799961e-02   3.6399964e-02   3.5999966e-02
7.8000000e-01   7.8000000e-01   7.8000000e-01   7.8000000e-01   7.8000000e-01   7.8000000e-01   7.8000000e-01   7.8000000e-01   7.8000000e-01   7.8000000e-01   7.8000000e-01   7.8000000e-01   7.8000000e-01   7.8000000e-01   7.8000000e-01   7.8000000e-01   7.8000000e-01   7.8000000e-01   7.8000000e-01   7.8000000e-01   7.8000000e-01   7.8000000e-01   7.8000000e-01   7.8000000e-01   7.8000000e-01   7.8000000e-01   7.8000000e-01   7.8000000e-01   7.8000000e-01   7.8000000e-01   7.8000000e-01   7.8000000e-01   7.8000000e-01   7.8000000e-01   7.8000000e-01   7.8000000e-01   7.8000000e-01   7.8000000e-01   7.8000000e-01   7.8000000e-01   7.8000000e-01   7.8000000e-01   7.8000000e-01   7.8000000e-01   7.8000000e-01   7.8000000e-01   7.8000000e-01   7.8000000e-01   7.8000000e-01   7.8000000e-01   7.8000000e-01   7.7074069e-01   7.6148138e-01   7.5222207e-01   7.4296276e-01   7.3370345e-01   7.2444414e-01   7.1518483e-01   7.0592552e-01   6.9666621e-01   6.8740690e-01   6.7814759e-01   6.6888829e-01   6.5962898e-01   6.5036967e-01   6.4111036e-01   6.3185105e-01   6.2259174e-01   6.1333243e-01   6.0407312e-01   5.9481381e-01   5.8555450e-01   5.7629519e-01   5.6703588e-01   5.5777657e-01   5.4851726e-01   5.3925795e-01   5.2999864e-01   5.2073933e-01   5.1148002e-01   5.0222071e-01   4.9296140e-01   4.8370209e-01   4.7444278e-01   4.6518348e-01   4.5592417e-01   4.4666486e-01   4.3740555e-01   4.2814624e-01   4.1888693e-01   4.0962762e-01   4.0036831e-01   3.9110900e-01   3.8184969e-01   3.7259038e-01   3.6333107e-01   3.5407176e-01   3.4481245e-01   3.3555314e-01   3.2629383e-01   3.1703452e-01   3.0777521e-01   2.9851590e-01   2.8925659e-01   2.7999728e-01   2.7073797e-01   2.6147866e-01   2.5221936e-01   2.4296005e-01   2.3370074e-01   2.2444143e-01   2.1518212e-01   2.0592281e-01   1.9666350e-01   1.8740419e-01   1.7814488e-01   1.6888557e-01   1.5962626e-01   1.5036695e-01   1.4110764e-01   1.3184833e-01   1.2258902e-01   1.1332971e-01   1.0407040e-01   9.4811093e-02   8.5551783e-02   7.6292474e-02   6.7033164e-02   5.8799831e-02   5.8399833e-02   5.7999836e-02   5.7599838e-02   5.7199840e-02   5.6799843e-02   5.6399845e-02   5.5999847e-02   5.5599850e-02   5.5199852e-02   5.4799855e-02   5.4399857e-02   5.3999859e-02   5.3599862e-02   5.3199864e-02   5.2799866e-02   5.2399869e-02   5.1999871e-02   5.1599873e-02   5.1199876e-02   5.0799878e-02   5.0399880e-02   4.9999883e-02   4.9599885e-02   4.9199887e-02   4.8799890e-02   4.8399892e-02   4.7999894e-02   4.7599897e-02   4.7199899e-02   4.6799901e-02   4.6399904e-02   4.5999906e-02   4.5599908e-02   4.5199911e-02   4.4799913e-02   4.4399916e-02   4.3999918e-02   4.3599920e-02   4.3199923e-02   4.2799925e-02   4.2399927e-02   4.1999930e-02   4.1599932e-02   4.1199934e-02   4.0799937e-02   4.0399939e-02   3.9999941e-02   3.9599944e-02   3.9199946e-02   3.8799948e-02   3.8399951e-02   3.7999953e-02   3.7599955e-02   3.7199958e-02   3.6799960e-02   3.6399962e-02   3.5999965e-02
7.8000000e-01   7.8000000e-01   7.8000000e-01   7.8000000e-01   7.8000000e-01   7.8000000e-01   7.8000000e-01   7.8000000e-01   7.8000000e-01   7.8000000e-01   7.8000000e-01   7.8000000e-01   7.8000000e-01   7.8000000e-01   7.8000000e-01   7.8000000e-01   7.8000000e-01   7.8000000e-01   7.8000000e-01   7.8000000e-01   7.8000000e-01   7.8000000e-01   7.8000000e-01   7.8000000e-01   7.8000000e-01   7.8000000e-01   7.8000000e-01   7.8000000e-01   7.8000000e-01   7.8000000e-01   7.8000000e-01   7.8000000e-01   7.8000000e-01   7.8000000e-01   7.8000000e-01   7.8000000e-01   7.8000000e-01   7.8000000e-01   7.8000000e-01   7.8000000e-01   7.8000000e-01   7.8000000e-01   7.8000000e-01   7.8000000e-01   7.8000000e-01   7.8000000e-01   7.8000000e-01   7.8000000e-01   7.8000000e-01   7.8000000e-01   7.8000000e-01   7.7084873e-01   7.6169746e-01   7.5254619e-01   7.4339492e-01   7.3424365e-01   7.2509238e-01   7.1594111e-01   7.0678984e-01   6.9763857e-01   6.8848730e-01   6.7933604e-01   6.7018477e-01   6.6103350e-01   6.5188223e-01   6.4273096e-01   6.3357969e-01   6.2442842e-01   6.1527715e-01   6.0612588e-01   5.9697461e-01   5.8782334e-01   5.7867207e-01   5.6952080e-01   5.6036953e-01   5.5121826e-01   5.4206699e-01   5.3291572e-01   5.2376445e-01   5.1461318e-01   5.0546191e-01   4.9631065e-01   4.8715938e-01   4.7800811e-01   4.6885684e-01   4.5970557e-01   4.5055430e-01   4.4140303e-01   4.3225176e-01   4.2310049e-01   4.1394922e-01   4.0479795e-01   3.9564668e-01   3.8649541e-01   3.7734414e-01   3.6819287e-01   3.5904160e-01   3.4989033e-01   3.4073906e-01   3.3158779e-01   3.2243652e-01   3.1328526e-01   3.0413399e-01   2.9498272e-01   2.8583145e-01   2.7668018e-01   2.6752891e-01   2.5837764e-01   2.4922637e-01   2.4007510e-01   2.3092383e-01   2.2177256e-01   2.1262129e-01   2.0347002e-01   1.9431875e-01   1.8516748e-01   1.7601621e-01   1.6686494e-01   1.5771367e-01   1.4856240e-01   1.3941113e-01   1.3025986e-01   1.2110860e-01   1.1195733e-01   1.0280606e-01   9.3654787e-02   8.4503517e-02   7.5352248e-02   6.6200978e-02   5.8399828e-02   5.7999830e-02   5.7599833e-02   5.7199835e-02   5.6799838e-02   5.6399840e-02   5.5999843e-02   5.5599845e-02   5.5199847e-02   5.4799850e-02   5.4399852e-02   5.3999855e-02   5.3599857e-02   5.3199860e-02   5.2799862e-02   5.2399864e-02   5.1999867e-02   5.1599869e-02   5.1199872e-02   5.0799874e-02   5.0399876e-02   4.9999879e-02   4.9599881e-02   4.9199884e-02   4.8799886e-02   4.8399889e-02   4.7999891e-02   4.7599893e-02   4.7199896e-02   4.6799898e-02   4.6399901e-02   4.5999903e-02   4.5599906e-02   4.5199908e-02   4.4799910e-02   4.4399913e-02   4.3999915e-02   4.3599918e-02   4.3199920e-02   4.2799923e-02   4.2399925e-02   4.1999927e-02   4.1599930e-02   4.1199932e-02   4.0799935e-02   4.0399937e-02   3.9999939e-02   3.9599942e-02   3.9199944e-02   3.8799947e-02   3.8399949e-02   3.7999952e-02   3.7599954e-02   3.7199956e-02   3.6799959e-02   3.6399961e-02   3.5999964e-02
7.8000000e-01   7.8000000e-01   7.8000000e-01   7.8000000e-01   7.8000000e-01   7.8000000e-01   7.8000000e-01   7.8000000e-01   7.8000000e-01   7.8000000e-01   7.8000000e-01   7.8000000e-01   7.8000000e-01   7.8000000e-01   7.8000000e-01   7.8000000e-01   7.8000000e-01   7.8000000e-01   7.8000000e-01   7.8000000e-01   7.8000000e-01   7.8000000e-01   7.8000000e-01   7.8000000e-01   7.8000000e-01   7.8000000e-01   7.8000000e-01   7.8000000e-01   7.8000000e-01   7.8000000e-01   7.8000000e-01   7.8000000e-01   7.8000000e-01   7.8000000e-01   7.8000000e-01   7.8000000e-01   7.8000000e-01   7.8000000e-01   7.8000000e-01   7.8000000e-01   7.8000000e-01   7.8000000e-01   7.8000000e-01   7.8000000e-01   7.8000000e-01   7.8000000e-01   7.8000000e-01   7.8000000e-01   7.8000000e-01   7.8000000e-01   7.8000000e-01   7.7095417e-01   7.6190833e-01   7.5286250e-01   7.4381667e-01   7.3477084e-01   7.2572500e-01   7.1667917e-01   7.0763334e-01   6.9858750e-01   6.8954167e-01   6.8049584e-01   6.7145001e-01   6.6240417e-01   6.5335834e-01   6.4431251e-01   6.3526667e-01   6.2622084e-01   6.1717501e-01   6.0812918e-01   5.9908334e-01   5.9003751e-01   5.8099168e-01   5.7194584e-01   5.6290001e-01   5.5385418e-01   5.4480835e-01   5.3576251e-01   5.2671668e-01   5.1767085e-01   5.0862502e-01   4.9957918e-01   4.9053335e-01   4.8148752e-01   4.7244168e-01   4.6339585e-01   4.5435002e-01   4.4530419e-01   4.3625835e-01   4.2721252e-01   4.1816669e-01   4.0912085e-01   4.0007502e-01   3.9102919e-01   3.8198336e-01   3.7293752e-01   3.6389169e-01   3.5484586e-01   3.4580002e-01   3.3675419e-01   3.2770836e-01   3.1866253e-01   3.0961669e-01   3.0057086e-01   2.9152503e-01   2.8247919e-01   2.7343336e-01   2.6438753e-01   2.5534170e-01   2.4629586e-01   2.3725003e-01   2.2820420e-01   2.1915836e-01   2.1011253e-01   2.0106670e-01   1.9202087e-01   1.8297503e-01   1.7392920e-01   1.6488337e-01   1.5583753e-01   1.4679170e-01   1.3774587e-01   1.2870004e-01   1.1965420e-01   1.1060837e-01   1.0156254e-01   9.2516705e-02   8.3470872e-02   7.4425039e-02   6.5379206e-02   5.7999825e-02   5.7599828e-02   5.7199830e-02   5.6799833e-02   5.6399835e-02   5.5999838e-02   5.5599840e-02   5.5199843e-02   5.4799845e-02   5.4399848e-02   5.3999850e-02   5.3599853e-02   5.3199855e-02   5.2799858e-02   5.2399860e-02   5.1999863e-02   5.1599865e-02   5.1199868e-02   5.0799870e-02   5.0399873e-02   4.9999875e-02   4.9599878e-02   4.9199880e-02   4.8799883e-02   4.8399885e-02   4.7999888e-02   4.7599890e-02   4.7199893e-02   4.6799895e-02   4.6399898e-02   4.5999900e-02   4.5599903e-02   4.5199905e-02   4.4799908e-02   4.4399910e-02   4.3999913e-02   4.3599915e-02   4.3199918e-02   4.2799920e-02   4.2399923e-02   4.1999925e-02   4.1599928e-02   4.1199930e-02   4.0799933e-02   4.0399935e-02   3.9999938e-02   3.9599940e-02   3.9199943e-02   3.8799945e-02   3.8399948e-02   3.7999950e-02   3.7599953e-02   3.7199955e-02   3.6799958e-02   3.6399960e-02   3.5999963e-02
7.8000000e-01   7.8000000e-01   7.8000000e-01   7.8000000e-01   7.8000000e-01   7.8000000e-01   7.8000000e-01   7.8000000e-01   7.8000000e-01   7.8000000e-01   7.8000000e-01   7.8000000e-01   7.8000000e-01   7.8000000e-01   7.8000000e-01   7.8000000e-01   7.8000000e-01   7.8000000e-01   7.8000000e-01   7.8000000e-01   7.8000000e-01   7.8000000e-01   7.8000000e-01   7.8000000e-01   7.8000000e-01   7.8000000e-01   7.8000000e-01   7.8000000e-01   7.8000000e-01   7.8000000e-01   7.8000000e-01   7.8000000e-01   7.8000000e-01   7.8000000e-01   7.8000000e-01   7.8000000e-01   7.8000000e-01   7.8000000e-01   7.8000000e-01   7.8000000e-01   7.8000000e-01   7.8000000e-01   7.8000000e-01   7.8000000e-01   7.8000000e-01   7.8000000e-01   7.8000000e-01   7.8000000e-01   7.8000000e-01   7.8000000e-01   7.8000000e-01   7.7105709e-01   7.6211419e-01   7.5317128e-01   7.4422837e-01   7.3528547e-01   7.2634256e-01   7.1739965e-01   7.0845675e-01   6.9951384e-01   6.9057093e-01   6.8162803e-01   6.7268512e-01   6.6374221e-01   6.5479931e-01   6.4585640e-01   6.3691350e-01   6.2797059e-01   6.1902768e-01   6.1008478e-01   6.0114187e-01   5.9219896e-01   5.8325606e-01   5.7431315e-01   5.6537024e-01   5.5642734e-01   5.4748443e-01   5.3854152e-01   5.2959862e-01   5.2065571e-01   5.1171280e-01   5.0276990e-01   4.9382699e-01   4.8488408e-01   4.7594118e-01   4.6699827e-01   4.5805536e-01   4.4911246e-01   4.4016955e-01   4.3122664e-01   4.2228374e-01   4.1334083e-01   4.0439793e-01   3.9545502e-01   3.8651211e-01   3.7756921e-01   3.6862630e-01   3.5968339e-01   3.5074049e-01   3.4179758e-01   3.3285467e-01   3.2391177e-01   3.1496886e-01   3.0602595e-01   2.9708305e-01   2.8814014e-01   2.7919723e-01   2.7025433e-01   2.6131142e-01   2.5236851e-01   2.4342561e-01   2.3448270e-01   2.2553979e-01   2.1659689e-01   2.0765398e-01   1.9871107e-01   1.8976817e-01   1.8082526e-01   1.7188236e-01   1.6293945e-01   1.5399654e-01   1.4505364e-01   1.3611073e-01   1.2716782e-01   1.1822492e-01   1.0928201e-01   1.0033910e-01   9.1396196e-02   8.2453290e-02   7.3510383e-02   6.4567477e-02   5.7599822e-02   5.7199825e-02   5.6799827e-02   5.6399830e-02   5.5999832e-02   5.5599835e-02   5.5199838e-02   5.4799840e-02   5.4399843e-02   5.3999845e-02   5.3599848e-02   5.3199850e-02   5.2799853e-02   5.2399856e-02   5.1999858e-02   5.1599861e-02   5.1199863e-02   5.0799866e-02   5.0399869e-02   4.9999871e-02   4.9599874e-02   4.9199876e-02   4.8799879e-02   4.8399881e-02   4.7999884e-02   4.7599887e-02   4.7199889e-02   4.6799892e-02   4.6399894e-02   4.5999897e-02   4.5599899e-02   4.5199902e-02   4.4799905e-02   4.4399907e-02   4.3999910e-02   4.3599912e-02   4.3199915e-02   4.2799918e-02   4.2399920e-02   4.1999923e-02   4.1599925e-02   4.1199928e-02   4.0799930e-02   4.0399933e-02   3.9999936e-02   3.9599938e-02   3.9199941e-02   3.8799943e-02   3.8399946e-02   3.7999948e-02   3.7599951e-02   3.7199954e-02   3.6799956e-02   3.6399959e-02   3.5999961e-02
7.8000000e-01   7.8000000e-01   7.8000000e-01   7.8000000e-01   7.8000000e-01   7.8000000e-01   7.8000000e-01   7.8000000e-01   7.8000000e-01   7.8000000e-01   7.8000000e-01   7.8000000e-01   7.8000000e-01   7.8000000e-01   7.8000000e-01   7.8000000e-01   7.8000000e-01   7.8000000e-01   7.8000000e-01   7.8000000e-01   7.8000000e-01   7.8000000e-01   7.8000000e-01   7.8000000e-01   7.8000000e-01   7.8000000e-01   7.8000000e-01   7.8000000e-01   7.8000000e-01   7.8000000e-01   7.8000000e-01   7.8000000e-01   7.8000000e-01   7.8000000e-01   7.8000000e-01   7.8000000e-01   7.8000000e-01   7.8000000e-01   7.8000000e-01   7.8000000e-01   7.8000000e-01   7.8000000e-01   7.8000000e-01   7.8000000e-01   7.8000000e-01   7.8000000e-01   7.8000000e-01   7.8000000e-01   7.8000000e-01   7.8000000e-01   7.8000000e-01   7.7115760e-01   7.6231520e-01   7.5347279e-01   7.4463039e-01   7.3578799e-01   7.2694559e-01   7.1810319e-01   7.0926078e-01   7.0041838e-01   6.9157598e-01   6.8273358e-01   6.7389118e-01   6.6504877e-01   6.5620637e-01   6.4736397e-01   6.3852157e-01   6.2967917e-01   6.2083676e-01   6.1199436e-01   6.0315196e-01   5.9430956e-01   5.8546716e-01   5.7662475e-01   5.6778235e-01   5.5893995e-01   5.5009755e-01   5.4125514e-01   5.3241274e-01   5.2357034e-01   5.1472794e-01   5.0588554e-01   4.9704313e-01   4.8820073e-01   4.7935833e-01   4.7051593e-01   4.6167353e-01   4.5283112e-01   4.4398872e-01   4.3514632e-01   4.2630392e-01   4.1746152e-01   4.0861911e-01   3.9977671e-01   3.9093431e-01   3.8209191e-01   3.7324951e-01   3.6440710e-01   3.5556470e-01   3.4672230e-01   3.3787990e-01   3.2903750e-01   3.2019509e-01   3.1135269e-01   3.0251029e-01   2.9366789e-01   2.8482549e-01   2.7598308e-01   2.6714068e-01   2.5829828e-01   2.4945588e-01   2.4061348e-01   2.3177107e-01   2.2292867e-01   2.1408627e-01   2.0524387e-01   1.9640147e-01   1.8755906e-01   1.7871666e-01   1.6987426e-01   1.6103186e-01   1.5218945e-01   1.4334705e-01   1.3450465e-01   1.2566225e-01   1.1681985e-01   1.0797744e-01   9.9135043e-02   9.0292641e-02   8.1450239e-02   7.2607837e-02   6.3765435e-02   5.7199819e-02   5.6799822e-02   5.6399824e-02   5.5999827e-02   5.5599830e-02   5.5199832e-02   5.4799835e-02   5.4399838e-02   5.3999840e-02   5.3599843e-02   5.3199846e-02   5.2799848e-02   5.2399851e-02   5.1999854e-02   5.1599856e-02   5.1199859e-02   5.0799862e-02   5.0399864e-02   4.9999867e-02   4.9599870e-02   4.9199872e-02   4.8799875e-02   4.8399878e-02   4.7999880e-02   4.7599883e-02   4.7199886e-02   4.6799888e-02   4.6399891e-02   4.5999894e-02   4.5599896e-02   4.5199899e-02   4.4799902e-02   4.4399904e-02   4.3999907e-02   4.3599910e-02   4.3199912e-02   4.2799915e-02   4.2399918e-02   4.1999920e-02   4.1599923e-02   4.1199926e-02   4.0799928e-02   4.0399931e-02   3.9999934e-02   3.9599936e-02   3.9199939e-02   3.8799941e-02   3.8399944e-02   3.7999947e-02   3.7599949e-02   3.7199952e-02   3.6799955e-02   3.6399957e-02   3.5999960e-02
7.8000000e-01   7.8000000e-01   7.8000000e-01   7.8000000e-01   7.8000000e-01   7.8000000e-01   7.8000000e-01   7.8000000e-01   7.8000000e-01   7.8000000e-01   7.8000000e-01   7.8000000e-01   7.8000000e-01   7.8000000e-01   7.8000000e-01   7.8000000e-01   7.8000000e-01   7.8000000e-01   7.8000000e-01   7.8000000e-01   7.8000000e-01   7.8000000e-01   7.8000000e-01   7.8000000e-01   7.8000000e-01   7.8000000e-01   7.8000000e-01   7.8000000e-01   7.8000000e-01   7.8000000e-01   7.8000000e-01   7.8000000e-01   7.8000000e-01   7.8000000e-01   7.8000000e-01   7.8000000e-01   7.8000000e-01   7.8000000e-01   7.8000000e-01   7.8000000e-01   7.8000000e-01   7.8000000e-01   7.8000000e-01   7.8000000e-01   7.8000000e-01   7.8000000e-01   7.8000000e-01   7.8000000e-01   7.8000000e-01   7.8000000e-01   7.8000000e-01   7.7125577e-01   7.6251153e-01   7.5376730e-01   7.4502306e-01   7.3627883e-01   7.2753459e-01   7.1879036e-01   7.1004612e-01   7.0130189e-01   6.9255765e-01   6.8381342e-01   6.7506918e-01   6.6632495e-01   6.5758071e-01   6.4883648e-01   6.4009224e-01   6.3134801e-01   6.2260377e-01   6.1385954e-01   6.0511530e-01   5.9637107e-01   5.8762683e-01   5.7888260e-01   5.7013836e-01   5.6139413e-01   5.5264989e-01   5.4390566e-01   5.3516142e-01   5.2641719e-01   5.1767295e-01   5.0892872e-01   5.0018448e-01   4.9144025e-01   4.8269602e-01   4.7395178e-01   4.6520755e-01   4.5646331e-01   4.4771908e-01   4.3897484e-01   4.3023061e-01   4.2148637e-01   4.1274214e-01   4.0399790e-01   3.9525367e-01   3.8650943e-01   3.7776520e-01   3.6902096e-01   3.6027673e-01   3.5153249e-01   3.4278826e-01   3.3404402e-01   3.2529979e-01   3.1655555e-01   3.0781132e-01   2.9906708e-01   2.9032285e-01   2.8157861e-01   2.7283438e-01   2.6409014e-01   2.5534591e-01   2.4660167e-01   2.3785744e-01   2.2911320e-01   2.2036897e-01   2.1162473e-01   2.0288050e-01   1.9413626e-01   1.8539203e-01   1.7664780e-01   1.6790356e-01   1.5915933e-01   1.5041509e-01   1.4167086e-01   1.3292662e-01   1.2418239e-01   1.1543815e-01   1.0669392e-01   9.7949682e-02   8.9205447e-02   8.0461212e-02   7.1716977e-02   6.2972742e-02   5.6799816e-02   5.6399819e-02   5.5999822e-02   5.5599824e-02   5.5199827e-02   5.4799830e-02   5.4399833e-02   5.3999835e-02   5.3599838e-02   5.3199841e-02   5.2799844e-02   5.2399846e-02   5.1999849e-02   5.1599852e-02   5.1199855e-02   5.0799857e-02   5.0399860e-02   4.9999863e-02   4.9599866e-02   4.9199868e-02   4.8799871e-02   4.8399874e-02   4.7999877e-02   4.7599879e-02   4.7199882e-02   4.6799885e-02   4.6399888e-02   4.5999890e-02   4.5599893e-02   4.5199896e-02   4.4799899e-02   4.4399901e-02   4.3999904e-02   4.3599907e-02   4.3199909e-02   4.2799912e-02   4.2399915e-02   4.1999918e-02   4.1599920e-02   4.1199923e-02   4.0799926e-02   4.0399929e-02   3.9999931e-02   3.9599934e-02   3.9199937e-02   3.8799940e-02   3.8399942e-02   3.7999945e-02   3.7599948e-02   3.7199951e-02   3.6799953e-02   3.6399956e-02   3.5999959e-02
7.8000000e-01   7.8000000e-01   7.8000000e-01   7.8000000e-01   7.8000000e-01   7.8000000e-01   7.8000000e-01   7.8000000e-01   7.8000000e-01   7.8000000e-01   7.8000000e-01   7.8000000e-01   7.8000000e-01   7.8000000e-01   7.8000000e-01   7.8000000e-01   7.8000000e-01   7.8000000e-01   7.8000000e-01   7.8000000e-01   7.8000000e-01   7.8000000e-01   7.8000000e-01   7.8000000e-01   7.8000000e-01   7.8000000e-01   7.8000000e-01   7.8000000e-01   7.8000000e-01   7.8000000e-01   7.8000000e-01   7.8000000e-01   7.8000000e-01   7.8000000e-01   7.8000000e-01   7.8000000e-01   7.8000000e-01   7.8000000e-01   7.8000000e-01   7.8000000e-01   7.8000000e-01   7.8000000e-01   7.8000000e-01   7.8000000e-01   7.8000000e-01   7.8000000e-01   7.8000000e-01   7.8000000e-01   7.8000000e-01   7.8000000e-01   7.8000000e-01   7.7135168e-01   7.6270335e-01   7.5405503e-01   7.4540670e-01   7.3675838e-01   7.2811005e-01   7.1946173e-01   7.1081341e-01   7.0216508e-01   6.9351676e-01   6.8486843e-01   6.7622011e-01   6.6757178e-01   6.5892346e-01   6.5027513e-01   6.4162681e-01   6.3297849e-01   6.2433016e-01   6.1568184e-01   6.0703351e-01   5.9838519e-01   5.8973686e-01   5.8108854e-01   5.7244022e-01   5.6379189e-01   5.5514357e-01   5.4649524e-01   5.3784692e-01   5.2919859e-01   5.2055027e-01   5.1190194e-01   5.0325362e-01   4.9460530e-01   4.8595697e-01   4.7730865e-01   4.6866032e-01   4.6001200e-01   4.5136367e-01   4.4271535e-01   4.3406703e-01   4.2541870e-01   4.1677038e-01   4.0812205e-01   3.9947373e-01   3.9082540e-01   3.8217708e-01   3.7352875e-01   3.6488043e-01   3.5623211e-01   3.4758378e-01   3.3893546e-01   3.3028713e-01   3.2163881e-01   3.1299048e-01   3.0434216e-01   2.9569384e-01   2.8704551e-01   2.7839719e-01   2.6974886e-01   2.6110054e-01   2.5245221e-01   2.4380389e-01   2.3515556e-01   2.2650724e-01   2.1785892e-01   2.0921059e-01   2.0056227e-01   1.9191394e-01   1.8326562e-01   1.7461729e-01   1.6596897e-01   1.5732065e-01   1.4867232e-01   1.4002400e-01   1.3137567e-01   1.2272735e-01   1.1407902e-01   1.0543070e-01   9.6782375e-02   8.8134050e-02   7.9485726e-02   7.0837401e-02   6.2189077e-02   5.6399813e-02   5.5999816e-02   5.5599819e-02   5.5199822e-02   5.4799825e-02   5.4399827e-02   5.3999830e-02   5.3599833e-02   5.3199836e-02   5.2799839e-02   5.2399842e-02   5.1999844e-02   5.1599847e-02   5.1199850e-02   5.0799853e-02   5.0399856e-02   4.9999859e-02   4.9599861e-02   4.9199864e-02   4.8799867e-02   4.8399870e-02   4.7999873e-02   4.7599876e-02   4.7199878e-02   4.6799881e-02   4.6399884e-02   4.5999887e-02   4.5599890e-02   4.5199892e-02   4.4799895e-02   4.4399898e-02   4.3999901e-02   4.3599904e-02   4.3199907e-02   4.2799909e-02   4.2399912e-02   4.1999915e-02   4.1599918e-02   4.1199921e-02   4.0799924e-02   4.0399926e-02   3.9999929e-02   3.9599932e-02   3.9199935e-02   3.8799938e-02   3.8399941e-02   3.7999943e-02   3.7599946e-02   3.7199949e-02   3.6799952e-02   3.6399955e-02   3.5999958e-02
7.8000000e-01   7.8000000e-01   7.8000000e-01   7.8000000e-01   7.8000000e-01   7.8000000e-01   7.8000000e-01   7.8000000e-01   7.8000000e-01   7.8000000e-01   7.8000000e-01   7.8000000e-01   7.8000000e-01   7.8000000e-01   7.8000000e-01   7.8000000e-01   7.8000000e-01   7.8000000e-01   7.8000000e-01   7.8000000e-01   7.8000000e-01   7.8000000e-01   7.8000000e-01   7.8000000e-01   7.8000000e-01   7.8000000e-01   7.8000000e-01   7.8000000e-01   7.8000000e-01   7.8000000e-01   7.8000000e-01   7.8000000e-01   7.8000000e-01   7.8000000e-01   7.8000000e-01   7.8000000e-01   7.8000000e-01   7.8000000e-01   7.8000000e-01   7.8000000e-01   7.8000000e-01   7.8000000e-01   7.8000000e-01   7.8000000e-01   7.8000000e-01   7.8000000e-01   7.8000000e-01   7.8000000e-01   7.8000000e-01   7.8000000e-01   7.8000000e-01   7.7144541e-01   7.6289081e-01   7.5433622e-01   7.4578163e-01   7.3722703e-01   7.2867244e-01   7.2011784e-01   7.1156325e-01   7.0300866e-01   6.9445406e-01   6.8589947e-01   6.7734488e-01   6.6879028e-01   6.6023569e-01   6.5168109e-01   6.4312650e-01   6.3457191e-01   6.2601731e-01   6.1746272e-01   6.0890813e-01   6.0035353e-01   5.9179894e-01   5.8324435e-01   5.7468975e-01   5.6613516e-01   5.5758056e-01   5.4902597e-01   5.4047138e-01   5.3191678e-01   5.2336219e-01   5.1480760e-01   5.0625300e-01   4.9769841e-01   4.8914382e-01   4.8058922e-01   4.7203463e-01   4.6348003e-01   4.5492544e-01   4.4637085e-01   4.3781625e-01   4.2926166e-01   4.2070707e-01   4.1215247e-01   4.0359788e-01   3.9504328e-01   3.8648869e-01   3.7793410e-01   3.6937950e-01   3.6082491e-01   3.5227032e-01   3.4371572e-01   3.3516113e-01   3.2660654e-01   3.1805194e-01   3.0949735e-01   3.0094275e-01   2.9238816e-01   2.8383357e-01   2.7527897e-01   2.6672438e-01   2.5816979e-01   2.4961519e-01   2.4106060e-01   2.3250601e-01   2.2395141e-01   2.1539682e-01   2.0684222e-01   1.9828763e-01   1.8973304e-01   1.8117844e-01   1.7262385e-01   1.6406926e-01   1.5551466e-01   1.4696007e-01   1.3840547e-01   1.2985088e-01   1.2129629e-01   1.1274169e-01   1.0418710e-01   9.5632506e-02   8.7077913e-02   7.8523319e-02   6.9968725e-02   6.1414132e-02   5.5999810e-02   5.5599813e-02   5.5199816e-02   5.4799819e-02   5.4399822e-02   5.3999825e-02   5.3599828e-02   5.3199831e-02   5.2799834e-02   5.2399837e-02   5.1999840e-02   5.1599842e-02   5.1199845e-02   5.0799848e-02   5.0399851e-02   4.9999854e-02   4.9599857e-02   4.9199860e-02   4.8799863e-02   4.8399866e-02   4.7999869e-02   4.7599872e-02   4.7199875e-02   4.6799877e-02   4.6399880e-02   4.5999883e-02   4.5599886e-02   4.5199889e-02   4.4799892e-02   4.4399895e-02   4.3999898e-02   4.3599901e-02   4.3199904e-02   4.2799907e-02   4.2399910e-02   4.1999912e-02   4.1599915e-02   4.1199918e-02   4.0799921e-02   4.0399924e-02   3.9999927e-02   3.9599930e-02   3.9199933e-02   3.8799936e-02   3.8399939e-02   3.7999942e-02   3.7599945e-02   3.7199947e-02   3.6799950e-02   3.6399953e-02   3.5999956e-02
7.8000000e-01   7.8000000e-01   7.8000000e-01   7.8000000e-01   7.8000000e-01   7.8000000e-01   7.8000000e-01   7.8000000e-01   7.8000000e-01   7.8000000e-01   7.8000000e-01   7.8000000e-01   7.8000000e-01   7.8000000e-01   7.8000000e-01   7.8000000e-01   7.8000000e-01   7.8000000e-01   7.8000000e-01   7.8000000e-01   7.8000000e-01   7.8000000e-01   7.8000000e-01   7.8000000e-01   7.8000000e-01   7.8000000e-01   7.8000000e-01   7.8000000e-01   7.8000000e-01   7.8000000e-01   7.8000000e-01   7.8000000e-01   7.8000000e-01   7.8000000e-01   7.8000000e-01   7.8000000e-01   7.8000000e-01   7.8000000e-01   7.8000000e-01   7.8000000e-01   7.8000000e-01   7.8000000e-01   7.8000000e-01   7.8000000e-01   7.8000000e-01   7.8000000e-01   7.8000000e-01   7.8000000e-01   7.8000000e-01   7.8000000e-01   7.8000000e-01   7.7153703e-01   7.6307406e-01   7.5461109e-01   7.4614812e-01   7.3768515e-01   7.2922218e-01   7.2075922e-01   7.1229625e-01   7.0383328e-01   6.9537031e-01   6.8690734e-01   6.7844437e-01   6.6998140e-01   6.6151843e-01   6.5305546e-01   6.4459249e-01   6.3612952e-01   6.2766655e-01   6.1920358e-01   6.1074061e-01   6.0227765e-01   5.9381468e-01   5.8535171e-01   5.7688874e-01   5.6842577e-01   5.5996280e-01   5.5149983e-01   5.4303686e-01   5.3457389e-01   5.2611092e-01   5.1764795e-01   5.0918498e-01   5.0072201e-01   4.9225904e-01   4.8379608e-01   4.7533311e-01   4.6687014e-01   4.5840717e-01   4.4994420e-01   4.4148123e-01   4.3301826e-01   4.2455529e-01   4.1609232e-01   4.0762935e-01   3.9916638e-01   3.9070341e-01   3.8224044e-01   3.7377747e-01   3.6531451e-01   3.5685154e-01   3.4838857e-01   3.3992560e-01   3.3146263e-01   3.2299966e-01   3.1453669e-01   3.0607372e-01   2.9761075e-01   2.8914778e-01   2.8068481e-01   2.7222184e-01   2.6375887e-01   2.5529591e-01   2.4683294e-01   2.3836997e-01   2.2990700e-01   2.2144403e-01   2.1298106e-01   2.0451809e-01   1.9605512e-01   1.8759215e-01   1.7912918e-01   1.7066621e-01   1.6220324e-01   1.5374027e-01   1.4527730e-01   1.3681434e-01   1.2835137e-01   1.1988840e-01   1.1142543e-01   1.0296246e-01   9.4499489e-02   8.6036520e-02   7.7573550e-02   6.9110581e-02   6.0647612e-02   5.5599807e-02   5.5199810e-02   5.4799813e-02   5.4399816e-02   5.3999819e-02   5.3599822e-02   5.3199825e-02   5.2799828e-02   5.2399831e-02   5.1999835e-02   5.1599838e-02   5.1199841e-02   5.0799844e-02   5.0399847e-02   4.9999850e-02   4.9599853e-02   4.9199856e-02   4.8799859e-02   4.8399862e-02   4.7999865e-02   4.7599868e-02   4.7199871e-02   4.6799874e-02   4.6399877e-02   4.5999880e-02   4.5599883e-02   4.5199886e-02   4.4799889e-02   4.4399892e-02   4.3999895e-02   4.3599898e-02   4.3199901e-02   4.2799904e-02   4.2399907e-02   4.1999910e-02   4.1599913e-02   4.1199916e-02   4.0799919e-02   4.0399922e-02   3.9999925e-02   3.9599928e-02   3.9199931e-02   3.8799934e-02   3.8399937e-02   3.7999940e-02   3.7599943e-02   3.7199946e-02   3.6799949e-02   3.6399952e-02   3.5999955e-02
7.8000000e-01   7.8000000e-01   7.8000000e-01   7.8000000e-01   7.8000000e-01   7.8000000e-01   7.8000000e-01   7.8000000e-01   7.8000000e-01   7.8000000e-01   7.8000000e-01   7.8000000e-01   7.8000000e-01   7.8000000e-01   7.8000000e-01   7.8000000e-01   7.8000000e-01   7.8000000e-01   7.8000000e-01   7.8000000e-01   7.8000000e-01   7.8000000e-01   7.8000000e-01   7.8000000e-01   7.8000000e-01   7.8000000e-01   7.8000000e-01   7.8000000e-01   7.8000000e-01   7.8000000e-01   7.8000000e-01   7.8000000e-01   7.8000000e-01   7.8000000e-01   7.8000000e-01   7.8000000e-01   7.8000000e-01   7.8000000e-01   7.8000000e-01   7.8000000e-01   7.8000000e-01   7.8000000e-01   7.8000000e-01   7.8000000e-01   7.8000000e-01   7.8000000e-01   7.8000000e-01   7.8000000e-01   7.8000000e-01   7.8000000e-01   7.8000000e-01   7.7162662e-01   7.6325324e-01   7.5487986e-01   7.4650648e-01   7.3813310e-01   7.2975971e-01   7.2138633e-01   7.1301295e-01   7.0463957e-01   6.9626619e-01   6.8789281e-01   6.7951943e-01   6.7114605e-01   6.6277267e-01   6.5439929e-01   6.4602590e-01   6.3765252e-01   6.2927914e-01   6.2090576e-01   6.1253238e-01   6.0415900e-01   5.9578562e-01   5.8741224e-01   5.7903886e-01   5.7066548e-01   5.6229209e-01   5.5391871e-01   5.4554533e-01   5.3717195e-01   5.2879857e-01   5.2042519e-01   5.1205181e-01   5.0367843e-01   4.9530505e-01   4.8693167e-01   4.7855829e-01   4.7018490e-01   4.6181152e-01   4.5343814e-01   4.4506476e-01   4.3669138e-01   4.2831800e-01   4.1994462e-01   4.1157124e-01   4.0319786e-01   3.9482448e-01   3.8645109e-01   3.7807771e-01   3.6970433e-01   3.6133095e-01   3.5295757e-01   3.4458419e-01   3.3621081e-01   3.2783743e-01   3.1946405e-01   3.1109067e-01   3.0271728e-01   2.9434390e-01   2.8597052e-01   2.7759714e-01   2.6922376e-01   2.6085038e-01   2.5247700e-01   2.4410362e-01   2.3573024e-01   2.2735686e-01   2.1898348e-01   2.1061009e-01   2.0223671e-01   1.9386333e-01   1.8548995e-01   1.7711657e-01   1.6874319e-01   1.6036981e-01   1.5199643e-01   1.4362305e-01   1.3524967e-01   1.2687628e-01   1.1850290e-01   1.1012952e-01   1.0175614e-01   9.3382761e-02   8.5009380e-02   7.6635999e-02   6.8262618e-02   5.9889237e-02   5.5199805e-02   5.4799808e-02   5.4399811e-02   5.3999814e-02   5.3599817e-02   5.3199820e-02   5.2799823e-02   5.2399826e-02   5.1999829e-02   5.1599832e-02   5.1199836e-02   5.0799839e-02   5.0399842e-02   4.9999845e-02   4.9599848e-02   4.9199851e-02   4.8799854e-02   4.8399857e-02   4.7999860e-02   4.7599863e-02   4.7199867e-02   4.6799870e-02   4.6399873e-02   4.5999876e-02   4.5599879e-02   4.5199882e-02   4.4799885e-02   4.4399888e-02   4.3999891e-02   4.3599894e-02   4.3199898e-02   4.2799901e-02   4.2399904e-02   4.1999907e-02   4.1599910e-02   4.1199913e-02   4.0799916e-02   4.0399919e-02   3.9999922e-02   3.9599926e-02   3.9199929e-02   3.8799932e-02   3.8399935e-02   3.7999938e-02   3.7599941e-02   3.7199944e-02   3.6799947e-02   3.6399950e-02   3.5999953e-02
7.8000000e-01   7.8000000e-01   7.8000000e-01   7.8000000e-01   7.8000000e-01   7.8000000e-01   7.8000000e-01   7.8000000e-01   7.8000000e-01   7.8000000e-01   7.8000000e-01   7.8000000e-01   7.8000000e-01   7.8000000e-01   7.8000000e-01   7.8000000e-01   7.8000000e-01   7.8000000e-01   7.8000000e-01   7.8000000e-01   7.8000000e-01   7.8000000e-01   7.8000000e-01   7.8000000e-01   7.8000000e-01   7.8000000e-01   7.8000000e-01   7.8000000e-01   7.8000000e-01   7.8000000e-01   7.8000000e-01   7.8000000e-01   7.8000000e-01   7.8000000e-01   7.8000000e-01   7.8000000e-01   7.8000000e-01   7.8000000e-01   7.8000000e-01   7.8000000e-01   7.8000000e-01   7.8000000e-01   7.8000000e-01   7.8000000e-01   7.8000000e-01   7.8000000e-01   7.8000000e-01   7.8000000e-01   7.8000000e-01   7.8000000e-01   7.8000000e-01   7.7171424e-01   7.6342848e-01   7.5514272e-01   7.4685695e-01   7.3857119e-01   7.3028543e-01   7.2199967e-01   7.1371391e-01   7.0542815e-01   6.9714238e-01   6.8885662e-01   6.8057086e-01   6.7228510e-01   6.6399934e-01   6.5571358e-01   6.4742781e-01   6.3914205e-01   6.3085629e-01   6.2257053e-01   6.1428477e-01   6.0599901e-01   5.9771324e-01   5.8942748e-01   5.8114172e-01   5.7285596e-01   5.6457020e-01   5.5628444e-01   5.4799867e-01   5.3971291e-01   5.3142715e-01   5.2314139e-01   5.1485563e-01   5.0656987e-01   4.9828410e-01   4.8999834e-01   4.8171258e-01   4.7342682e-01   4.6514106e-01   4.5685530e-01   4.4856953e-01   4.4028377e-01   4.3199801e-01   4.2371225e-01   4.1542649e-01   4.0714073e-01   3.9885496e-01   3.9056920e-01   3.8228344e-01   3.7399768e-01   3.6571192e-01   3.5742616e-01   3.4914040e-01   3.4085463e-01   3.3256887e-01   3.2428311e-01   3.1599735e-01   3.0771159e-01   2.9942583e-01   2.9114006e-01   2.8285430e-01   2.7456854e-01   2.6628278e-01   2.5799702e-01   2.4971126e-01   2.4142549e-01   2.3313973e-01   2.2485397e-01   2.1656821e-01   2.0828245e-01   1.9999669e-01   1.9171092e-01   1.8342516e-01   1.7513940e-01   1.6685364e-01   1.5856788e-01   1.5028212e-01   1.4199635e-01   1.3371059e-01   1.2542483e-01   1.1713907e-01   1.0885331e-01   1.0056755e-01   9.2281784e-02   8.3996023e-02   7.5710261e-02   6.7424500e-02   5.9138738e-02   5.4799802e-02   5.4399805e-02   5.3999808e-02   5.3599811e-02   5.3199814e-02   5.2799818e-02   5.2399821e-02   5.1999824e-02   5.1599827e-02   5.1199830e-02   5.0799834e-02   5.0399837e-02   4.9999840e-02   4.9599843e-02   4.9199846e-02   4.8799850e-02   4.8399853e-02   4.7999856e-02   4.7599859e-02   4.7199862e-02   4.6799866e-02   4.6399869e-02   4.5999872e-02   4.5599875e-02   4.5199878e-02   4.4799882e-02   4.4399885e-02   4.3999888e-02   4.3599891e-02   4.3199894e-02   4.2799898e-02   4.2399901e-02   4.1999904e-02   4.1599907e-02   4.1199910e-02   4.0799914e-02   4.0399917e-02   3.9999920e-02   3.9599923e-02   3.9199926e-02   3.8799930e-02   3.8399933e-02   3.7999936e-02   3.7599939e-02   3.7199942e-02   3.6799946e-02   3.6399949e-02   3.5999952e-02
